# .PCD v0.7 - Point Cloud Data file format
VERSION 0.7
FIELDS x y z
SIZE 4 4 4
TYPE F F F
COUNT 1 1 1
WIDTH 1442
HEIGHT 1
VIEWPOINT 0 0 0 1 0 0 0
POINTS 1442
DATA ascii
0.82499999 0.33446699 -0.061439909
0.83600003 0.35666171 -0.063623361
0.83499998 0.35350981 -0.063547254
0.83499998 0.35214722 -0.063547254
0.83399999 0.35036451 -0.063471153
0.83399999 0.34900352 -0.063471153
0.833 0.34722573 -0.063395046
0.82999998 0.34462076 -0.06316673
0.82999998 0.34326631 -0.06316673
0.829 0.34149992 -0.06309063
0.829 0.34014711 -0.06309063
0.82700002 0.33797693 -0.062938422
0.82499999 0.33581328 -0.062786214
0.82499999 0.33446699 -0.062786214
0.83700001 0.35708833 -0.065065354
0.83499998 0.35350981 -0.064909875
0.83499998 0.35214722 -0.064909875
0.83499998 0.3507846 -0.064909875
0.83499998 0.34942201 -0.064909875
0.833 0.34722573 -0.064754404
0.82999998 0.34462076 -0.064521194
0.82999998 0.34326631 -0.064521194
0.829 0.34149992 -0.064443462
0.829 0.34014711 -0.064443462
0.82700002 0.33797693 -0.06428799
0.82599998 0.33622032 -0.064210251
0.82599998 0.33487239 -0.064210251
0.83499998 0.35350981 -0.066272497
0.83499998 0.35214722 -0.066272497
0.83499998 0.3507846 -0.066272497
0.83499998 0.34942201 -0.066272497
0.833 0.34722573 -0.066113763
0.82999998 0.34462076 -0.065875657
0.82999998 0.34326631 -0.065875657
0.829 0.34149992 -0.065796293
0.829 0.34014711 -0.065796293
0.82700002 0.33797693 -0.065637559
0.82599998 0.33622032 -0.065558188
0.82599998 0.33487239 -0.065558188
0.824 0.33271691 -0.065399453
0.82300001 0.33097011 -0.065320082
0.83499998 0.35350981 -0.067635119
0.83499998 0.35214722 -0.067635119
0.83499998 0.3507846 -0.067635119
0.83499998 0.34942201 -0.067635119
0.833 0.34722573 -0.067473121
0.83099997 0.34503597 -0.067311123
0.83099997 0.34367988 -0.067311123
0.82999998 0.34191185 -0.06723012
0.82999998 0.3405574 -0.06723012
0.82800001 0.33838561 -0.067068122
0.82700002 0.33662739 -0.066987127
0.82700002 0.33527783 -0.066987127
0.82599998 0.33352447 -0.066906124
0.82599998 0.33217657 -0.066906124
0.83600003 0.35393322 -0.069080383
0.83600003 0.35256898 -0.069080383
0.83499998 0.3507846 -0.068997748
0.83499998 0.34942201 -0.068997748
0.83399999 0.34764257 -0.068915114
0.83099997 0.34503597 -0.068667218
0.83099997 0.34367988 -0.068667218
0.83099997 0.34232378 -0.068667218
0.83099997 0.34096771 -0.068667218
0.82999998 0.33920297 -0.068584584
0.829 0.33744147 -0.068501957
0.829 0.33608866 -0.068501957
0.82800001 0.33433205 -0.068419322
0.82800001 0.33298087 -0.068419322
0.83600003 0.35393322 -0.070444636
0.83600003 0.35256898 -0.070444636
0.83499998 0.3507846 -0.07036037
0.83499998 0.34942201 -0.07036037
0.83399999 0.34764257 -0.070276104
0.83099997 0.34503597 -0.070023313
0.83099997 0.34367988 -0.070023313
0.83099997 0.34232378 -0.070023313
0.83099997 0.34096771 -0.070023313
0.82999998 0.33920297 -0.069939047
0.829 0.33744147 -0.069854788
0.829 0.33608866 -0.069854788
0.82800001 0.33433205 -0.069770522
0.82800001 0.33298087 -0.069770522
0.83700001 0.35435656 -0.071894787
0.83700001 0.35299069 -0.071894787
0.83600003 0.35120472 -0.07180889
0.83600003 0.34984049 -0.07180889
0.83499998 0.34805939 -0.071722992
0.83399999 0.34628159 -0.071637094
0.83399999 0.34492061 -0.071637094
0.83399999 0.34355962 -0.071637094
0.83099997 0.34096771 -0.071379408
0.83099997 0.33961162 -0.071379408
0.83099997 0.33825555 -0.071379408
0.83099997 0.33689946 -0.071379408
0.83099997 0.33554339 -0.071379408
0.83099997 0.3341873 -0.071379408
0.83899999 0.3552033 -0.073435724
0.83899999 0.35383415 -0.073435724
0.83899999 0.352465 -0.073435724
0.83899999 0.35109589 -0.073435724
0.83700001 0.34889308 -0.073260672
0.83600003 0.347112 -0.073173143
0.83600003 0.34574777 -0.073173143
0.83600003 0.34438354 -0.073173143
0.83499998 0.34260896 -0.073085614
0.83499998 0.34124634 -0.073085614
0.83499998 0.33988374 -0.073085614
0.83499998 0.33852112 -0.073085614
0.83499998 0.33715853 -0.073085614
0.83499998 0.33579591 -0.073085614
0.83899999 0.3552033 -0.074804872
0.83899999 0.352465 -0.074804872
0.83899999 0.35109589 -0.074804872
0.83700001 0.34889308 -0.074626558
0.83600003 0.347112 -0.074537396
0.83600003 0.34574777 -0.074537396
0.83600003 0.34438354 -0.074537396
0.83499998 0.34260896 -0.074448235
0.83499998 0.34124634 -0.074448235
0.83499998 0.33988374 -0.074448235
0.83499998 0.33852112 -0.074448235
0.83499998 0.33715853 -0.074448235
0.83499998 0.33579591 -0.074448235
0.84100002 0.35330522 -0.076355606
0.84100002 0.35193282 -0.076355606
0.83899999 0.34972674 -0.076174021
0.838 0.34794241 -0.076083235
0.838 0.3465749 -0.076083235
0.838 0.34520739 -0.076083235
0.83700001 0.3434296 -0.075992443
0.83700001 0.34206372 -0.075992443
0.83700001 0.34069785 -0.075992443
0.83700001 0.33933198 -0.075992443
0.83700001 0.33796608 -0.075992443
0.83700001 0.33660021 -0.075992443
0.84100002 0.35330522 -0.077728026
0.84100002 0.35193282 -0.077728026
0.83899999 0.34972674 -0.077543169
0.838 0.34794241 -0.077450752
0.838 0.3465749 -0.077450752
0.838 0.34520739 -0.077450752
0.83700001 0.3434296 -0.077358328
0.83700001 0.34206372 -0.077358328
0.83700001 0.34069785 -0.077358328
0.83700001 0.33933198 -0.077358328
0.83700001 0.33796608 -0.077358328
0.83700001 0.33660021 -0.077358328
0.84299999 0.35689676 -0.079288542
0.84299999 0.35414544 -0.079288542
0.84299999 0.35276976 -0.079288542
0.84200001 0.35097727 -0.079194494
0.83899999 0.34835762 -0.078912325
0.83899999 0.34698847 -0.078912325
0.83899999 0.34561932 -0.078912325
0.83899999 0.3442502 -0.078912325
0.83899999 0.34288105 -0.078912325
0.83899999 0.34151193 -0.078912325
0.83899999 0.34014279 -0.078912325
0.83899999 0.33877367 -0.078912325
0.838 0.33700237 -0.078818269
0.838 0.33563486 -0.078818269
0.838 0.33426735 -0.078818269
0.84399998 0.3573201 -0.080759905
0.84399998 0.35456553 -0.080759905
0.84399998 0.35318822 -0.080759905
0.84299999 0.35139409 -0.080664225
0.84200001 0.34960324 -0.080568537
0.84200001 0.3482292 -0.080568537
0.84200001 0.34685516 -0.080568537
0.84200001 0.34548113 -0.080568537
0.84200001 0.34410709 -0.080568537
0.84200001 0.34273309 -0.080568537
0.84200001 0.34135905 -0.080568537
0.84100002 0.33958122 -0.080472849
0.84100002 0.33820882 -0.080472849
0.84100002 0.33683643 -0.080472849
0.84100002 0.33546403 -0.080472849
0.84399998 0.3573201 -0.08213722
0.84399998 0.35456553 -0.08213722
0.84399998 0.35318822 -0.08213722
0.84299999 0.35139409 -0.0820399
0.84200001 0.34960324 -0.081942581
0.84200001 0.3482292 -0.081942581
0.84200001 0.34685516 -0.081942581
0.84200001 0.34548113 -0.081942581
0.84200001 0.34410709 -0.081942581
0.84200001 0.34273309 -0.081942581
0.84200001 0.34135905 -0.081942581
0.84100002 0.33958122 -0.081845261
0.84100002 0.33820882 -0.081845261
0.84100002 0.33683643 -0.081845261
0.84100002 0.33546403 -0.081845261
0.84600002 0.35540575 -0.083712429
0.84600002 0.35402519 -0.083712429
0.84500003 0.35222778 -0.083613485
0.84500003 0.35084885 -0.083613485
0.84500003 0.34946993 -0.083613485
0.84500003 0.34809101 -0.083613485
0.84399998 0.34630173 -0.083514526
0.84399998 0.34492445 -0.083514526
0.84399998 0.34354717 -0.083514526
0.84399998 0.34216985 -0.083514526
0.84299999 0.34038877 -0.083415575
0.84299999 0.33901313 -0.083415575
0.84299999 0.33763745 -0.083415575
0.84299999 0.33626181 -0.083415575
0.85000002 0.35986033 -0.085495338
0.85000002 0.35708615 -0.085495338
0.85000002 0.35569906 -0.085495338
0.85000002 0.35431197 -0.085495338
0.85000002 0.35292488 -0.085495338
0.85000002 0.35153779 -0.085495338
0.84899998 0.34973875 -0.085394748
0.84799999 0.34794298 -0.085294165
0.84799999 0.34655917 -0.085294165
0.84799999 0.34517536 -0.085294165
0.84799999 0.34379151 -0.085294165
0.84600002 0.34160015 -0.085093006
0.84500003 0.33981743 -0.084992424
0.84500003 0.33843851 -0.084992424
0.84500003 0.33705959 -0.084992424
0.85000002 0.35708615 -0.086882435
0.85000002 0.35569906 -0.086882435
0.85000002 0.35431197 -0.086882435
0.85000002 0.35292488 -0.086882435
0.85000002 0.35153779 -0.086882435
0.84899998 0.34973875 -0.08678022
0.84799999 0.34794298 -0.086678006
0.84799999 0.34655917 -0.086678006
0.84799999 0.34517536 -0.086678006
0.84799999 0.34379151 -0.086678006
0.84600002 0.34160015 -0.086473577
0.84500003 0.33981743 -0.086371362
0.84500003 0.33843851 -0.086371362
0.84500003 0.33705959 -0.086371362
0.85299999 0.35834643 -0.08858107
0.85299999 0.35695446 -0.08858107
0.85299999 0.35556248 -0.08858107
0.85299999 0.3541705 -0.08858107
0.85299999 0.35277849 -0.08858107
0.85299999 0.35138652 -0.08858107
0.85100001 0.34917393 -0.088373385
0.85100001 0.3477852 -0.088373385
0.85000002 0.34598947 -0.088269539
0.84899998 0.34419695 -0.088165686
0.84899998 0.34281147 -0.088165686
0.84899998 0.34142601 -0.088165686
0.84899998 0.34004056 -0.088165686
0.84799999 0.33825624 -0.088061839
0.85299999 0.35834643 -0.08997307
0.85299999 0.35695446 -0.08997307
0.85299999 0.35556248 -0.08997307
0.85299999 0.3541705 -0.08997307
0.85299999 0.35277849 -0.08997307
0.85299999 0.35138652 -0.08997307
0.85100001 0.34917393 -0.089762114
0.85100001 0.3477852 -0.089762114
0.85000002 0.34598947 -0.089656636
0.84899998 0.34419695 -0.089551158
0.84899998 0.34281147 -0.089551158
0.84899998 0.34142601 -0.089551158
0.84899998 0.34004056 -0.089551158
0.84799999 0.33825624 -0.08944568
0.85600001 0.35960674 -0.091686398
0.85600001 0.35681298 -0.091686398
0.85600001 0.35541612 -0.091686398
0.85600001 0.35401922 -0.091686398
0.85600001 0.35262236 -0.091686398
0.85600001 0.35122547 -0.091686398
0.85600001 0.3498286 -0.091686398
0.85299999 0.34721059 -0.091365062
0.852 0.34541318 -0.09125796
0.852 0.34402284 -0.09125796
0.85100001 0.34223035 -0.09115085
0.85100001 0.34084162 -0.09115085
0.85000002 0.33905402 -0.091043741
0.84899998 0.33726966 -0.090936624
0.84899998 0.33588421 -0.090936624
0.85900003 0.36086705 -0.093409516
0.85900003 0.35806352 -0.093409516
0.85900003 0.35666174 -0.093409516
0.85900003 0.35525995 -0.093409516
0.85900003 0.3538582 -0.093409516
0.85799998 0.3520461 -0.093300775
0.85799998 0.35064596 -0.093300775
0.85699999 0.34883878 -0.093192033
0.85500002 0.34662944 -0.092974551
0.85500002 0.34523419 -0.092974551
0.85299999 0.34303463 -0.092757061
0.85299999 0.34164265 -0.092757061
0.852 0.33985177 -0.09264832
0.85100001 0.33806419 -0.092539579
0.85100001 0.33667547 -0.092539579
0.85900003 0.35806352 -0.094811305
0.85900003 0.35666174 -0.094811305
0.85900003 0.35525995 -0.094811305
0.85900003 0.3538582 -0.094811305
0.85799998 0.3520461 -0.094700925
0.85799998 0.35064596 -0.094700925
0.85699999 0.34883878 -0.094590552
0.85500002 0.34662944 -0.094369806
0.85500002 0.34523419 -0.094369806
0.85299999 0.34303463 -0.094149061
0.85299999 0.34164265 -0.094149061
0.852 0.33985177 -0.094038688
0.85100001 0.33806419 -0.093928315
0.85100001 0.33667547 -0.093928315
0.86199999 0.35931402 -0.096549109
0.86199999 0.35790735 -0.096549109
0.86199999 0.35650069 -0.096549109
0.86199999 0.35509402 -0.096549109
0.861 0.35327703 -0.096437104
0.861 0.351872 -0.096437104
0.85799998 0.34924582 -0.096101083
0.85699999 0.34744024 -0.095989078
0.85699999 0.34604174 -0.095989078
0.85500002 0.34383893 -0.095765069
0.85500002 0.3424437 -0.095765069
0.85299999 0.34025067 -0.095541053
0.852 0.33846143 -0.095429048
0.852 0.33707109 -0.095429048
0.86400002 0.36014771 -0.098183073
0.86400002 0.35873777 -0.098183073
0.86400002 0.35732782 -0.098183073
0.86400002 0.3559179 -0.098183073
0.86299998 0.35409763 -0.098069429
0.86299998 0.35268933 -0.098069429
0.861 0.35046697 -0.097842157
0.85799998 0.34784567 -0.097501241
0.85799998 0.34644553 -0.097501241
0.85699999 0.34464324 -0.097387604
0.85699999 0.34324473 -0.097387604
0.85600001 0.34144732 -0.097273968
0.85299999 0.33885869 -0.096933052
0.85299999 0.33746669 -0.096933052
0.86400002 0.36014771 -0.099593021
0.86400002 0.35732782 -0.099593021
0.86400002 0.3559179 -0.099593021
0.86299998 0.35409763 -0.099477746
0.86299998 0.35268933 -0.099477746
0.861 0.35046697 -0.099247202
0.85799998 0.34784567 -0.098901391
0.85799998 0.34644553 -0.098901391
0.85699999 0.34464324 -0.098786123
0.85699999 0.34324473 -0.098786123
0.85600001 0.34144732 -0.098670855
0.85299999 0.33885869 -0.098325044
0.85299999 0.33746669 -0.098325044
0.86799997 0.35898212 -0.10147057
0.86699998 0.35715371 -0.10135367
0.86500001 0.35491827 -0.10111986
0.86500001 0.35350671 -0.10111986
0.86299998 0.35128105 -0.10088605
0.861 0.34906191 -0.10065226
0.861 0.34765688 -0.10065226
0.85900003 0.34544754 -0.10041846
0.85900003 0.34404579 -0.10041846
0.85699999 0.34184623 -0.10018465
0.85600001 0.34005046 -0.10006775
0.85600001 0.33865356 -0.10006775
0.86799997 0.35898212 -0.10288704
0.86699998 0.35715371 -0.10276851
0.86500001 0.35491827 -0.10253144
0.86500001 0.35350671 -0.10253144
0.86299998 0.35128105 -0.10229437
0.861 0.34906191 -0.10205731
0.861 0.34765688 -0.10205731
0.85900003 0.34544754 -0.10182025
0.85900003 0.34404579 -0.10182025
0.85699999 0.34184623 -0.10158318
0.85600001 0.34005046 -0.10146464
0.85600001 0.33865356 -0.10146464
0.86900002 0.35939571 -0.10442369
0.86900002 0.3579776 -0.10442369
0.86699998 0.35573888 -0.10418335
0.86699998 0.35432404 -0.10418335
0.86400002 0.35168809 -0.10382286
0.86199999 0.34946734 -0.10358252
0.86199999 0.34806067 -0.10358252
0.861 0.34625185 -0.10346236
0.861 0.34484681 -0.10346236
0.85900003 0.34264401 -0.10322203
0.85799998 0.34084496 -0.10310186
0.85799998 0.33944482 -0.10310186
0.87 0.35980928 -0.10596359
0.87 0.35838956 -0.10596359
0.86799997 0.3561492 -0.10571999
0.86799997 0.35473272 -0.10571999
0.86699998 0.35290924 -0.10559819
0.86400002 0.35027817 -0.10523281
0.86400002 0.34886822 -0.10523281
0.86299998 0.34705612 -0.105111
0.86299998 0.34564784 -0.105111
0.861 0.34344175 -0.10486741
0.85900003 0.34124222 -0.10462382
0.85900003 0.33984044 -0.10462382
0.85699999 0.33765069 -0.10438022
0.85600001 0.33585981 -0.10425843
0.87 0.35980928 -0.10738333
0.87 0.35838956 -0.10738333
0.86799997 0.3561492 -0.10713647
0.86799997 0.35473272 -0.10713647
0.86699998 0.35290924 -0.10701303
0.86400002 0.35027817 -0.10664275
0.86400002 0.34886822 -0.10664275
0.86299998 0.34705612 -0.10651932
0.86299998 0.34564784 -0.10651932
0.861 0.34344175 -0.10627246
0.85900003 0.34124222 -0.10602561
0.85900003 0.33984044 -0.10602561
0.85699999 0.33765069 -0.10577875
0.85600001 0.33585981 -0.10565532
0.87199998 0.36063641 -0.10905318
0.87 0.35838956 -0.10880306
0.86900002 0.35655951 -0.10867801
0.86900002 0.35514143 -0.10867801
0.86799997 0.35331628 -0.10855294
0.86500001 0.35068357 -0.10817776
0.86500001 0.34927201 -0.10817776
0.86400002 0.3474583 -0.1080527
0.86400002 0.34604836 -0.1080527
0.86199999 0.34384066 -0.10780257
0.861 0.34203672 -0.10767751
0.861 0.34063169 -0.10767751
0.85799998 0.33804467 -0.10730233
0.85699999 0.33625218 -0.10717727
0.87199998 0.36063641 -0.11047618
0.87 0.35838956 -0.1102228
0.86900002 0.35655951 -0.11009611
0.86900002 0.35514143 -0.11009611
0.86799997 0.35331628 -0.10996941
0.86699998 0.3514944 -0.10984272
0.86699998 0.35007957 -0.10984272
0.86400002 0.3474583 -0.10946265
0.86400002 0.34604836 -0.10946265
0.86199999 0.34384066 -0.10920925
0.861 0.34203672 -0.10908256
0.861 0.34063169 -0.10908256
0.85900003 0.33843869 -0.10882919
0.85799998 0.33664453 -0.10870248
0.87199998 0.36063641 -0.11189919
0.86900002 0.35655951 -0.11151422
0.86900002 0.35514143 -0.11151422
0.86799997 0.35331628 -0.11138589
0.86699998 0.3514944 -0.11125756
0.86699998 0.35007957 -0.11125756
0.86400002 0.3474583 -0.1108726
0.86400002 0.34604836 -0.1108726
0.86199999 0.34384066 -0.11061594
0.861 0.34203672 -0.11048762
0.861 0.34063169 -0.11048762
0.85900003 0.33843869 -0.11023097
0.85799998 0.33664453 -0.11010264
0.87199998 0.36063641 -0.11332219
0.86900002 0.35655951 -0.11293232
0.86900002 0.35514143 -0.11293232
0.86799997 0.35331628 -0.11280236
0.86699998 0.3514944 -0.1126724
0.86699998 0.35007957 -0.1126724
0.86400002 0.3474583 -0.11228254
0.86400002 0.34604836 -0.11228254
0.86299998 0.34423953 -0.11215258
0.86199999 0.34243399 -0.11202262
0.86199999 0.34102732 -0.11202262
0.85900003 0.33843869 -0.11163276
0.85900003 0.33703691 -0.11163276
0.87199998 0.36063641 -0.11474519
0.86900002 0.35655951 -0.11435043
0.86900002 0.35514143 -0.11435043
0.86799997 0.35331628 -0.11421884
0.86699998 0.3514944 -0.11408725
0.86699998 0.35007957 -0.11408725
0.86500001 0.34786046 -0.11382408
0.86500001 0.34644887 -0.11382408
0.86299998 0.34423953 -0.11356089
0.86199999 0.34243399 -0.11342931
0.86199999 0.34102732 -0.11342931
0.861 0.33922666 -0.11329772
0.861 0.3378216 -0.11329772
0.86900002 0.35655951 -0.11576854
0.86900002 0.35514143 -0.11576854
0.86799997 0.35331628 -0.11563531
0.86699998 0.3514944 -0.11550209
0.86699998 0.35007957 -0.11550209
0.86500001 0.34786046 -0.11523566
0.86500001 0.34644887 -0.11523566
0.86299998 0.34423953 -0.11496921
0.86199999 0.34243399 -0.11483599
0.86199999 0.34102732 -0.11483599
0.861 0.33922666 -0.11470277
0.861 0.3378216 -0.11470277
0.86900002 0.35655951 -0.11718664
0.86900002 0.35514143 -0.11718664
0.86799997 0.35331628 -0.11705178
0.86699998 0.3514944 -0.11691693
0.86699998 0.35007957 -0.11691693
0.86500001 0.34786046 -0.11664723
0.86500001 0.34644887 -0.11664723
0.86400002 0.34463844 -0.11651238
0.86299998 0.34283122 -0.11637753
0.86299998 0.34142292 -0.11637753
0.86199999 0.33962065 -0.11624267
0.861 0.3378216 -0.11610782
0.86900002 0.35655951 -0.11860475
0.86900002 0.35514143 -0.11860475
0.86799997 0.35331628 -0.11846825
0.86699998 0.3514944 -0.11833178
0.86699998 0.35007957 -0.11833178
0.86500001 0.34786046 -0.11805881
0.86500001 0.34644887 -0.11805881
0.86400002 0.34463844 -0.11792233
0.86299998 0.34283122 -0.11778584
0.86299998 0.34142292 -0.11778584
0.86199999 0.33962065 -0.11764935
0.861 0.3378216 -0.11751287
0.861 0.33641657 -0.11751287
0.861 0.33501154 -0.11751287
0.86900002 0.35655951 -0.12002286
0.86900002 0.35514143 -0.12002286
0.86799997 0.35331628 -0.11988473
0.86699998 0.3514944 -0.11974662
0.86699998 0.35007957 -0.11974662
0.86699998 0.34866473 -0.11974662
0.86699998 0.3472499 -0.11974662
0.86400002 0.34463844 -0.11933228
0.86299998 0.34283122 -0.11919415
0.86299998 0.34142292 -0.11919415
0.86299998 0.34001464 -0.11919415
0.86199999 0.33821398 -0.11905604
0.86199999 0.33680731 -0.11905604
0.86199999 0.33540064 -0.11905604
0.86900002 0.35655951 -0.12144096
0.86900002 0.35514143 -0.12144096
0.86799997 0.35331628 -0.1213012
0.86799997 0.3518998 -0.1213012
0.86799997 0.35048336 -0.1213012
0.86699998 0.34866473 -0.12116146
0.86699998 0.3472499 -0.12116146
0.86500001 0.34503731 -0.12088197
0.86400002 0.34322849 -0.12074222
0.86400002 0.34181857 -0.12074222
0.86299998 0.34001464 -0.12060247
0.86299998 0.33860633 -0.12060247
0.86299998 0.33719802 -0.12060247
0.86299998 0.33578971 -0.12060247
0.86900002 0.35655951 -0.12285907
0.86900002 0.35514143 -0.12285907
0.86799997 0.35331628 -0.12271768
0.86799997 0.3518998 -0.12271768
0.86799997 0.35048336 -0.12271768
0.86699998 0.34866473 -0.1225763
0.86699998 0.3472499 -0.1225763
0.86500001 0.34503731 -0.12229355
0.86400002 0.34322849 -0.12215217
0.86400002 0.34181857 -0.12215217
0.86299998 0.34001464 -0.12201078
0.86299998 0.33860633 -0.12201078
0.86299998 0.33719802 -0.12201078
0.86299998 0.33578971 -0.12201078
0.86900002 0.35655951 -0.12427717
0.86900002 0.35372332 -0.12427717
0.86799997 0.3518998 -0.12413415
0.86799997 0.35048336 -0.12413415
0.86799997 0.34906688 -0.12413415
0.86799997 0.34765041 -0.12413415
0.86699998 0.34583509 -0.12399115
0.86400002 0.34322849 -0.12356212
0.86400002 0.34181857 -0.12356212
0.86400002 0.34040862 -0.12356212
0.86400002 0.33899871 -0.12356212
0.86400002 0.33758876 -0.12356212
0.86299998 0.33578971 -0.1234191
0.86900002 0.35372332 -0.12569529
0.86799997 0.3518998 -0.12555063
0.86799997 0.35048336 -0.12555063
0.86799997 0.34906688 -0.12555063
0.86799997 0.34765041 -0.12555063
0.86799997 0.34623396 -0.12555063
0.86500001 0.34362575 -0.12511671
0.86500001 0.3422142 -0.12511671
0.86500001 0.34080261 -0.12511671
0.86400002 0.33899871 -0.12497206
0.86400002 0.33758876 -0.12497206
0.86400002 0.33617884 -0.12497206
0.86900002 0.35372332 -0.12711339
0.86799997 0.3518998 -0.1269671
0.86799997 0.35048336 -0.1269671
0.86799997 0.34906688 -0.1269671
0.86799997 0.34765041 -0.1269671
0.86799997 0.34623396 -0.1269671
0.86500001 0.34362575 -0.12652828
0.86500001 0.3422142 -0.12652828
0.86500001 0.34080261 -0.12652828
0.86400002 0.33899871 -0.12638201
0.86400002 0.33758876 -0.12638201
0.86400002 0.33617884 -0.12638201
0.86900002 0.35372332 -0.1285315
0.86900002 0.35230523 -0.1285315
0.86900002 0.35088715 -0.1285315
0.86900002 0.34946907 -0.1285315
0.86900002 0.34805095 -0.1285315
0.86900002 0.34663287 -0.1285315
0.86699998 0.34442025 -0.12823567
0.86699998 0.34300542 -0.12823567
0.86699998 0.34159058 -0.12823567
0.86500001 0.33939105 -0.12793986
0.86500001 0.3379795 -0.12793986
0.86500001 0.33656794 -0.12793986
0.86900002 0.35372332 -0.1299496
0.86900002 0.35230523 -0.1299496
0.86900002 0.35088715 -0.1299496
0.86900002 0.34946907 -0.1299496
0.86900002 0.34805095 -0.1299496
0.86900002 0.34663287 -0.1299496
0.86699998 0.34442025 -0.12965052
0.86699998 0.34300542 -0.12965052
0.86699998 0.34159058 -0.12965052
0.86500001 0.33939105 -0.12935144
0.86500001 0.3379795 -0.12935144
0.86500001 0.33656794 -0.12935144
0.87199998 0.35779044 -0.13182122
0.87 0.35413036 -0.13151887
0.87 0.35271063 -0.13151887
0.87 0.35129091 -0.13151887
0.87 0.34987119 -0.13151887
0.87 0.34845147 -0.13151887
0.87 0.34703174 -0.13151887
0.86900002 0.34521478 -0.13136771
0.86900002 0.34379667 -0.13136771
0.86799997 0.34198457 -0.13121653
0.86699998 0.34017578 -0.13106535
0.86699998 0.33876094 -0.13106535
0.86699998 0.33734611 -0.13106535
0.86500001 0.33374479 -0.13076302
0.87300003 0.35535151 -0.13339703
0.87300003 0.3539269 -0.13339703
0.87300003 0.35250229 -0.13339703
0.87300003 0.35107765 -0.13339703
0.87199998 0.34925249 -0.13324422
0.87199998 0.34782952 -0.13324422
0.87 0.34561202 -0.13293861
0.87 0.3441923 -0.13293861
0.86900002 0.34237859 -0.13278581
0.86799997 0.34056813 -0.132633
0.86799997 0.33915165 -0.132633
0.86799997 0.33773521 -0.132633
0.86699998 0.33593127 -0.1324802
0.86699998 0.33451644 -0.1324802
0.87300003 0.35535151 -0.13482165
0.87300003 0.35250229 -0.13482165
0.87300003 0.35107765 -0.13482165
0.87199998 0.34925249 -0.13466722
0.87199998 0.34782952 -0.13466722
0.87 0.34561202 -0.13435835
0.87 0.3441923 -0.13435835
0.86900002 0.34237859 -0.13420393
0.86799997 0.34056813 -0.13404948
0.86799997 0.33915165 -0.13404948
0.86799997 0.33773521 -0.13404948
0.86699998 0.33593127 -0.13389504
0.86699998 0.33451644 -0.13389504
0.87300003 0.35535151 -0.13624629
0.87400001 0.35290605 -0.13640235
0.87400001 0.3514798 -0.13640235
0.87400001 0.35005355 -0.13640235
0.87400001 0.3486273 -0.13640235
0.87199998 0.34640652 -0.13609022
0.87199998 0.34498355 -0.13609022
0.87 0.34277257 -0.13577808
0.86900002 0.3409605 -0.13562202
0.86900002 0.33954242 -0.13562202
0.86900002 0.33812431 -0.13562202
0.86799997 0.33631873 -0.13546595
0.86699998 0.33451644 -0.13530989
0.875 0.35616559 -0.13798632
0.875 0.35330984 -0.13798632
0.875 0.35188195 -0.13798632
0.875 0.35045406 -0.13798632
0.875 0.34902617 -0.13798632
0.87400001 0.34720105 -0.13782862
0.87400001 0.3457748 -0.13782862
0.87199998 0.34356055 -0.13751322
0.87 0.34135285 -0.13719782
0.87 0.33993313 -0.13719782
0.86900002 0.33812431 -0.13704014
0.86799997 0.33631873 -0.13688242
0.86799997 0.33490229 -0.13688242
0.875 0.35616559 -0.13941422
0.875 0.35330984 -0.13941422
0.875 0.35188195 -0.13941422
0.875 0.35045406 -0.13941422
0.875 0.34902617 -0.13941422
0.87400001 0.34720105 -0.1392549
0.87400001 0.3457748 -0.1392549
0.87199998 0.34356055 -0.13893622
0.87 0.34135285 -0.13861756
0.87 0.33993313 -0.13861756
0.86900002 0.33812431 -0.13845824
0.86799997 0.33631873 -0.1382989
0.86799997 0.33490229 -0.1382989
0.87599999 0.35657266 -0.14100307
0.87599999 0.3537136 -0.14100307
0.87599999 0.3522841 -0.14100307
0.87599999 0.35085458 -0.14100307
0.87599999 0.34942508 -0.14100307
0.875 0.34759831 -0.14084211
0.875 0.34617043 -0.14084211
0.87300003 0.34395456 -0.1405202
0.87199998 0.34213758 -0.14035922
0.87199998 0.34071457 -0.14035922
0.87 0.3385134 -0.1400373
0.87 0.33709368 -0.1400373
0.86799997 0.33490229 -0.13971537
0.87599999 0.3537136 -0.1424326
0.87599999 0.3522841 -0.1424326
0.87599999 0.35085458 -0.1424326
0.87599999 0.34942508 -0.1424326
0.875 0.34759831 -0.14227001
0.875 0.34617043 -0.14227001
0.87300003 0.34395456 -0.14194483
0.87199998 0.34213758 -0.14178222
0.87199998 0.34071457 -0.14178222
0.87 0.3385134 -0.14145705
0.86900002 0.33670622 -0.14129445
0.86799997 0.33490229 -0.14113185
0.87800002 0.35452119 -0.14419059
0.87800002 0.35308841 -0.14419059
0.87800002 0.35165563 -0.14419059
0.87800002 0.35022286 -0.14419059
0.875 0.34759831 -0.14369792
0.875 0.34617043 -0.14369792
0.87400001 0.34434855 -0.14353369
0.87300003 0.34252995 -0.14336947
0.87300003 0.34110531 -0.14336947
0.87199998 0.33929157 -0.14320523
0.86900002 0.33670622 -0.14271256
0.86900002 0.33528814 -0.14271256
0.86699998 0.33310163 -0.1423841
0.86699998 0.33168679 -0.1423841
0.87900001 0.35492498 -0.14578925
0.87900001 0.35349056 -0.14578925
0.87900001 0.35205615 -0.14578925
0.87900001 0.35062173 -0.14578925
0.87800002 0.34879008 -0.14562339
0.87800002 0.3473573 -0.14562339
0.875 0.34474254 -0.14512581
0.87400001 0.3429223 -0.14495996
0.87400001 0.34149605 -0.14495996
0.87300003 0.3396807 -0.14479409
0.87 0.33709368 -0.14429653
0.87 0.33567396 -0.14429653
0.86799997 0.33348581 -0.1439648
0.86799997 0.33206937 -0.1439648
0.87900001 0.35492498 -0.14722367
0.87900001 0.35205615 -0.14722367
0.87900001 0.35062173 -0.14722367
0.87800002 0.34879008 -0.14705618
0.87800002 0.3473573 -0.14705618
0.875 0.34474254 -0.14655371
0.87400001 0.3429223 -0.14638622
0.87400001 0.34149605 -0.14638622
0.87300003 0.3396807 -0.14621873
0.87 0.33709368 -0.14571626
0.87 0.33567396 -0.14571626
0.86799997 0.33348581 -0.14538127
0.86799997 0.33206937 -0.14538127
0.88 0.35245666 -0.14882721
0.88 0.3510206 -0.14882721
0.87900001 0.34918731 -0.1486581
0.87900001 0.3477529 -0.1486581
0.87800002 0.34592453 -0.14848897
0.875 0.34331465 -0.1479816
0.875 0.34188676 -0.1479816
0.87400001 0.3400698 -0.14781249
0.87199998 0.3378686 -0.14747423
0.87199998 0.3364456 -0.14747423
0.86900002 0.33387002 -0.14696687
0.86900002 0.33245194 -0.14696687
0.88200003 0.35325772 -0.15060478
0.88200003 0.35181841 -0.15060478
0.88 0.34958458 -0.15026326
0.88 0.34814852 -0.15026326
0.88 0.3467125 -0.15026326
0.87800002 0.34449175 -0.14992177
0.87800002 0.34305894 -0.14992177
0.87599999 0.34084797 -0.14958026
0.87300003 0.33825609 -0.149068
0.87300003 0.33683145 -0.149068
0.87199998 0.33502263 -0.14889725
0.87199998 0.33359963 -0.14889725
0.88200003 0.35325772 -0.1520441
0.88200003 0.35181841 -0.1520441
0.88 0.34958458 -0.15169933
0.88 0.34814852 -0.15169933
0.88 0.3467125 -0.15169933
0.87800002 0.34449175 -0.15135457
0.87800002 0.34305894 -0.15135457
0.87599999 0.34084797 -0.15100978
0.87300003 0.33825609 -0.15049264
0.87300003 0.33683145 -0.15049264
0.87199998 0.33502263 -0.15032025
0.87199998 0.33359963 -0.15032025
0.884 0.35405874 -0.15383145
0.884 0.35261616 -0.15383145
0.88300002 0.35077634 -0.15365744
0.88300002 0.3493354 -0.15365744
0.88300002 0.34789446 -0.15365744
0.88 0.34527645 -0.15313539
0.88 0.34384039 -0.15313539
0.87800002 0.34162617 -0.15278736
0.875 0.33903101 -0.1522653
0.875 0.33760312 -0.1522653
0.87300003 0.33540684 -0.15191726
0.87300003 0.33398223 -0.15191726
0.884 0.35405874 -0.15527405
0.884 0.35261616 -0.15527405
0.88300002 0.35077634 -0.15509839
0.88300002 0.3493354 -0.15509839
0.88300002 0.34789446 -0.15509839
0.88 0.34527645 -0.15457144
0.88 0.34384039 -0.15457144
0.87800002 0.34162617 -0.15422015
0.875 0.33903101 -0.1536932
0.875 0.33760312 -0.1536932
0.87300003 0.33540684 -0.1533419
0.87300003 0.33398223 -0.1533419
0.88700002 0.35526031 -0.15724847
0.88700002 0.35381284 -0.15724847
0.88499999 0.35157084 -0.15689391
0.88499999 0.35012665 -0.15689391
0.88499999 0.34868243 -0.15689391
0.88300002 0.34645352 -0.15653935
0.88300002 0.34501261 -0.15653935
0.88 0.34240437 -0.1560075
0.87800002 0.34019339 -0.15565294
0.87800002 0.33876061 -0.15565294
0.875 0.33617523 -0.15512109
0.875 0.33474734 -0.15512109
0.87300003 0.33255759 -0.15476653
0.87 0.32999507 -0.15423469
0.889 0.35606134 -0.15905377
0.889 0.35315987 -0.15905377
0.889 0.35170913 -0.15905377
0.889 0.35025841 -0.15905377
0.88700002 0.34802297 -0.15869595
0.88700002 0.3465755 -0.15869595
0.88300002 0.34357166 -0.15798029
0.88 0.34096831 -0.15744355
0.88 0.33953229 -0.15744355
0.87800002 0.33732784 -0.15708573
0.87800002 0.33589506 -0.15708573
0.875 0.33331946 -0.15654899
0.87300003 0.33113298 -0.15619117
0.889 0.35606134 -0.16050452
0.889 0.35315987 -0.16050452
0.889 0.35170913 -0.16050452
0.889 0.35025841 -0.16050452
0.88700002 0.34802297 -0.16014344
0.88700002 0.3465755 -0.16014344
0.88300002 0.34357166 -0.15942125
0.88 0.34096831 -0.15887961
0.88 0.33953229 -0.15887961
0.87800002 0.33732784 -0.15851852
0.87800002 0.33589506 -0.15851852
0.875 0.33331946 -0.1579769
0.87300003 0.33113298 -0.15761581
0.89200002 0.35726291 -0.1625018
0.88999999 0.35355711 -0.16213743
0.88999999 0.35210475 -0.16213743
0.88999999 0.3506524 -0.16213743
0.889 0.34880769 -0.16195527
0.889 0.34735695 -0.16195527
0.88700002 0.34512803 -0.16159092
0.884 0.34251818 -0.16104437
0.884 0.3410756 -0.16104437
0.88200003 0.33886465 -0.16068003
0.88200003 0.33742532 -0.16068003
0.87900001 0.33484322 -0.1601335
0.875 0.33189157 -0.15940478
0.89300001 0.35766342 -0.16414124
0.89300001 0.3547489 -0.16414124
0.89300001 0.35329163 -0.16414124
0.89200002 0.3514404 -0.16395743
0.89200002 0.34998477 -0.16395743
0.89200002 0.34852913 -0.16395743
0.889 0.34590623 -0.16340601
0.88700002 0.34368056 -0.16303839
0.88700002 0.34223312 -0.16303839
0.884 0.33963305 -0.16248697
0.884 0.33819047 -0.16248697
0.88200003 0.33598602 -0.16211936
0.87900001 0.3334088 -0.16156793
0.89300001 0.35766342 -0.16559851
0.89300001 0.3547489 -0.16559851
0.89300001 0.35329163 -0.16559851
0.89200002 0.3514404 -0.16541308
0.89200002 0.34998477 -0.16541308
0.89200002 0.34852913 -0.16541308
0.889 0.34590623 -0.16485675
0.88700002 0.34368056 -0.16448587
0.88700002 0.34223312 -0.16448587
0.884 0.33963305 -0.16392955
0.884 0.33819047 -0.16392955
0.88200003 0.33598602 -0.16355868
0.87900001 0.3334088 -0.16300234
0.89399999 0.35514614 -0.16724285
0.89399999 0.35368726 -0.16724285
0.89399999 0.35222837 -0.16724285
0.89399999 0.35076949 -0.16724285
0.89399999 0.34931058 -0.16724285
0.89200002 0.34707353 -0.16686872
0.88999999 0.34484294 -0.16649456
0.88999999 0.34339058 -0.16649456
0.88800001 0.34116983 -0.16612042
0.88800001 0.33972073 -0.16612042
0.88499999 0.33712882 -0.1655592
0.88200003 0.33454672 -0.16499799
0.89700001 0.35633793 -0.16926788
0.89700001 0.35487413 -0.16926788
0.89700001 0.35341036 -0.16926788
0.89600003 0.35155421 -0.16907917
0.89600003 0.35009205 -0.16907917
0.89399999 0.34785169 -0.16870177
0.89300001 0.34600535 -0.16851306
0.89300001 0.34454811 -0.16851306
0.88999999 0.34193823 -0.16794693
0.88999999 0.34048587 -0.16794693
0.88800001 0.33827165 -0.16756953
0.884 0.33530533 -0.16681471
0.89700001 0.35633793 -0.17073168
0.89700001 0.35341036 -0.17073168
0.89600003 0.35155421 -0.17054135
0.89600003 0.35009205 -0.17054135
0.89399999 0.34785169 -0.17016067
0.89300001 0.34600535 -0.16997033
0.89300001 0.34454811 -0.16997033
0.88999999 0.34193823 -0.16939932
0.88999999 0.34048587 -0.16939932
0.88800001 0.33827165 -0.16901866
0.884 0.33530533 -0.1682573
0.884 0.33386275 -0.1682573
0.898 0.35673517 -0.17238744
0.89999998 0.35459232 -0.17277138
0.898 0.35233891 -0.17238744
0.898 0.3508735 -0.17238744
0.89700001 0.34901899 -0.17219548
0.89399999 0.34639281 -0.17161956
0.89399999 0.34493393 -0.17161956
0.89200002 0.34270665 -0.17123564
0.89200002 0.34125102 -0.17123564
0.889 0.33865258 -0.17065972
0.88700002 0.33644325 -0.17027579
0.88700002 0.33499578 -0.17027579
0.884 0.33242017 -0.16969989
0.898 0.35673517 -0.17385288
0.89999998 0.35459232 -0.17424007
0.898 0.35233891 -0.17385288
0.898 0.3508735 -0.17385288
0.89700001 0.34901899 -0.17365928
0.89399999 0.34639281 -0.17307848
0.89399999 0.34493393 -0.17307848
0.89200002 0.34270665 -0.17269127
0.89200002 0.34125102 -0.17269127
0.889 0.33865258 -0.17211047
0.88700002 0.33644325 -0.17172328
0.88700002 0.33499578 -0.17172328
0.884 0.33242017 -0.17114247
0.89999998 0.35752967 -0.17570876
0.90100002 0.35498631 -0.17590401
0.89999998 0.35312364 -0.17570876
0.89999998 0.35165495 -0.17570876
0.898 0.34940809 -0.1753183
0.89700001 0.34755522 -0.17512308
0.89700001 0.34609142 -0.17512308
0.89399999 0.34347504 -0.17453738
0.89200002 0.34125102 -0.17414692
0.89200002 0.33979538 -0.17414692
0.889 0.33720183 -0.17356122
0.889 0.33575112 -0.17356122
0.88700002 0.33354831 -0.17317076
0.90100002 0.35498631 -0.17737433
0.90100002 0.35351601 -0.17737433
0.90100002 0.35204569 -0.17737433
0.89999998 0.35018626 -0.17717746
0.89999998 0.3487176 -0.17717746
0.89999998 0.34724891 -0.17717746
0.89700001 0.34462765 -0.17658687
0.89399999 0.34201613 -0.17599627
0.89399999 0.34055725 -0.17599627
0.89200002 0.33833978 -0.17560256
0.89200002 0.33688414 -0.17560256
0.889 0.33430037 -0.17501196
0.90100002 0.35498631 -0.17884466
0.90100002 0.35351601 -0.17884466
0.90100002 0.35204569 -0.17884466
0.89999998 0.35018626 -0.17864615
0.89999998 0.3487176 -0.17864615
0.89999998 0.34724891 -0.17864615
0.89700001 0.34462765 -0.17805067
0.89399999 0.34201613 -0.17745519
0.89399999 0.34055725 -0.17745519
0.89200002 0.33833978 -0.17705819
0.89200002 0.33688414 -0.17705819
0.889 0.33430037 -0.17646271
0.90100002 0.35498631 -0.18031499
0.90200001 0.35243642 -0.18051511
0.90200001 0.35096449 -0.18051511
0.90100002 0.34910506 -0.18031499
0.90100002 0.34763476 -0.18031499
0.89999998 0.34578022 -0.18011485
0.89700001 0.34316385 -0.17951447
0.89700001 0.34170008 -0.17951447
0.89399999 0.33909836 -0.17891409
0.89399999 0.33763948 -0.17891409
0.89300001 0.33580455 -0.17871396
0.90100002 0.35498631 -0.18178532
0.90200001 0.35243642 -0.18198706
0.90200001 0.35096449 -0.18198706
0.90399998 0.35026744 -0.18239059
0.90399998 0.34879223 -0.18239059
0.90100002 0.34616444 -0.18178532
0.898 0.34354642 -0.18118003
0.898 0.34208101 -0.18118003
0.89700001 0.34023628 -0.18097827
0.89700001 0.33877251 -0.18097827
0.89600003 0.33693269 -0.18077652
0.90100002 0.35498631 -0.18325564
0.90200001 0.35243642 -0.18345903
0.90200001 0.35096449 -0.18345903
0.90399998 0.35026744 -0.1838658
0.90399998 0.34879223 -0.1838658
0.90100002 0.34616444 -0.18325564
0.898 0.34354642 -0.18264546
0.898 0.34208101 -0.18264546
0.89700001 0.34023628 -0.18244207
0.89700001 0.33877251 -0.18244207
0.89600003 0.33693269 -0.18223868
0.89300001 0.33434731 -0.18162851
0.89300001 0.33289003 -0.18162851
0.90399998 0.35321787 -0.18534103
0.90399998 0.35174266 -0.18534103
0.90399998 0.35026744 -0.18534103
0.90399998 0.34879223 -0.18534103
0.90200001 0.34654865 -0.18493098
0.90100002 0.34469414 -0.18472597
0.90100002 0.34322381 -0.18472597
0.89999998 0.34137419 -0.18452093
0.89999998 0.3399055 -0.18452093
0.89700001 0.3373087 -0.18390587
0.89600003 0.33547053 -0.18370084
0.89600003 0.33400837 -0.18370084
0.90399998 0.35321787 -0.18681625
0.90399998 0.35174266 -0.18681625
0.90399998 0.35026744 -0.18681625
0.90399998 0.34879223 -0.18681625
0.90200001 0.34654865 -0.18640295
0.90100002 0.34469414 -0.1861963
0.90100002 0.34322381 -0.1861963
0.89999998 0.34137419 -0.18598963
0.89999998 0.3399055 -0.18598963
0.89700001 0.3373087 -0.18536967
0.89600003 0.33547053 -0.18516302
0.89600003 0.33400837 -0.18516302
0.90499997 0.35360858 -0.18849975
0.90499997 0.35213175 -0.18849975
0.90499997 0.3506549 -0.18849975
0.90499997 0.34917808 -0.18849975
0.90399998 0.34731704 -0.18829148
0.90200001 0.34507671 -0.1878749
0.90200001 0.34360474 -0.1878749
0.90100002 0.34175351 -0.18766662
0.90100002 0.34028319 -0.18766662
0.89999998 0.33843681 -0.18745832
0.898 0.33621934 -0.18704176
0.898 0.33475393 -0.18704176
0.90600002 0.35104239 -0.19018655
0.90600002 0.34956393 -0.19018655
0.90499997 0.34770122 -0.1899766
0.90499997 0.3462244 -0.1899766
0.90499997 0.34474754 -0.1899766
0.90399998 0.3428914 -0.18976669
0.90399998 0.34141621 -0.18976669
0.90200001 0.33918893 -0.18934686
0.90100002 0.33734256 -0.18913694
0.90100002 0.33587226 -0.18913694
0.90600002 0.35104239 -0.19166502
0.90600002 0.34956393 -0.19166502
0.90499997 0.34770122 -0.19145346
0.90499997 0.3462244 -0.19145346
0.90499997 0.34474754 -0.19145346
0.90399998 0.3428914 -0.19124192
0.90399998 0.34141621 -0.19124192
0.90200001 0.33918893 -0.19081882
0.90100002 0.33734256 -0.19060726
0.90100002 0.33587226 -0.19060726
0.90799999 0.35181731 -0.19356987
0.90799999 0.35033557 -0.19356987
0.90799999 0.34885383 -0.19356987
0.90799999 0.34737211 -0.19356987
0.90799999 0.34589037 -0.19356987
0.90600002 0.34365004 -0.19314352
0.90600002 0.34217155 -0.19314352
0.90600002 0.34069309 -0.19314352
0.90499997 0.33884019 -0.19293031
0.90499997 0.33736336 -0.19293031
0.90899998 0.35220477 -0.19526643
0.90899998 0.35072139 -0.19526643
0.90899998 0.34923804 -0.19526643
0.90899998 0.34775466 -0.19526643
0.90899998 0.34627131 -0.19526643
0.90899998 0.34478793 -0.19526643
0.90899998 0.34330457 -0.19526643
0.90899998 0.34182119 -0.19526643
0.90799999 0.33996344 -0.19505163
0.90799999 0.33848169 -0.19505163
0.90600002 0.33625767 -0.194622
0.90399998 0.33404016 -0.19419236
0.90899998 0.35220477 -0.19674981
0.90899998 0.35072139 -0.19674981
0.90899998 0.34923804 -0.19674981
0.90899998 0.34775466 -0.19674981
0.90899998 0.34627131 -0.19674981
0.90899998 0.34478793 -0.19674981
0.90899998 0.34330457 -0.19674981
0.90899998 0.34182119 -0.19674981
0.90799999 0.33996344 -0.19653337
0.90799999 0.33848169 -0.19653337
0.90600002 0.33625767 -0.19610049
0.90399998 0.33404016 -0.19566758
0.91000003 0.35259226 -0.19845128
0.91000003 0.35110724 -0.19845128
0.91000003 0.34962225 -0.19845128
0.91000003 0.34813726 -0.19845128
0.912 0.34741411 -0.19888744
0.912 0.34592584 -0.19888744
0.912 0.3444376 -0.19888744
0.912 0.34294933 -0.19888744
0.91000003 0.34071225 -0.19845128
0.91000003 0.33922726 -0.19845128
0.90899998 0.33737108 -0.1982332
0.90799999 0.33551821 -0.19801512
0.91000003 0.35259226 -0.1999363
0.91000003 0.34962225 -0.1999363
0.91000003 0.34813726 -0.1999363
0.912 0.34741411 -0.20037571
0.912 0.34592584 -0.20037571
0.912 0.3444376 -0.20037571
0.912 0.34294933 -0.20037571
0.91000003 0.34071225 -0.1999363
0.91000003 0.33922726 -0.1999363
0.90899998 0.33737108 -0.19971658
0.90799999 0.33551821 -0.19949687
0.91299999 0.35077482 -0.20208533
0.91299999 0.34928495 -0.20208533
0.91399997 0.34817597 -0.20230667
0.91399997 0.34668446 -0.20230667
0.91399997 0.34519294 -0.20230667
0.91399997 0.34370139 -0.20230667
0.91399997 0.34220988 -0.20230667
0.91399997 0.34071836 -0.20230667
0.91299999 0.33885568 -0.20208533
0.91000003 0.33625725 -0.20142131
0.91600001 0.35192743 -0.20424417
0.91600001 0.35043266 -0.20424417
0.91600001 0.34893787 -0.20424417
0.91600001 0.34744307 -0.20424417
0.91600001 0.34594828 -0.20424417
0.917 0.34482953 -0.20446713
0.91600001 0.34295869 -0.20424417
0.91600001 0.34146392 -0.20424417
0.91399997 0.33922681 -0.2037982
0.912 0.33699629 -0.20335227
0.91600001 0.35192743 -0.20573898
0.91600001 0.35043266 -0.20573898
0.91600001 0.34893787 -0.20573898
0.91600001 0.34744307 -0.20573898
0.91600001 0.34594828 -0.20573898
0.917 0.34482953 -0.20596357
0.91600001 0.34295869 -0.20573898
0.91600001 0.34146392 -0.20573898
0.91399997 0.33922681 -0.20528975
0.912 0.33699629 -0.20484054
0.917 0.35231164 -0.20746002
0.91799998 0.35119778 -0.20768625
0.91799998 0.34969974 -0.20768625
0.91799998 0.34820166 -0.20768625
0.91799998 0.34670362 -0.20768625
0.91799998 0.34520558 -0.20768625
0.917 0.3433331 -0.20746002
0.917 0.34183669 -0.20746002
0.91600001 0.33996913 -0.20723377
0.91399997 0.3377353 -0.2067813
0.91399997 0.33624378 -0.2067813
0.91299999 0.33438599 -0.20655505
0.92000002 0.35346425 -0.20964006
0.92000002 0.35196292 -0.20964006
0.92000002 0.3504616 -0.20964006
0.92000002 0.34896028 -0.20964006
0.92000002 0.34745899 -0.20964006
0.92000002 0.34595767 -0.20964006
0.91799998 0.3437075 -0.20918432
0.91799998 0.34220946 -0.20918432
0.917 0.34034026 -0.20895645
0.91600001 0.33847433 -0.20872858
0.91600001 0.33697954 -0.20872858
0.91299999 0.33438599 -0.20804496
0.92000002 0.3504616 -0.21114139
0.92000002 0.34896028 -0.21114139
0.92000002 0.34745899 -0.21114139
0.92000002 0.34595767 -0.21114139
0.91799998 0.3437075 -0.21068238
0.91799998 0.34220946 -0.21068238
0.917 0.34034026 -0.21045288
0.91600001 0.33847433 -0.21022338
0.91600001 0.33697954 -0.21022338
0.91299999 0.33438599 -0.20953487
0.921 0.35084254 -0.21287386
0.92000002 0.34896028 -0.21264273
0.92000002 0.34745899 -0.21264273
0.921 0.34633368 -0.21287386
0.92000002 0.34445634 -0.21264273
0.92000002 0.34295502 -0.21264273
0.91799998 0.34071141 -0.21218045
0.91600001 0.33847433 -0.21171819
0.91600001 0.33697954 -0.21171819
0.91299999 0.33438599 -0.21102479
0.921 0.35084254 -0.21437682
0.92000002 0.34896028 -0.21414405
0.92000002 0.34745899 -0.21414405
0.921 0.34633368 -0.21437682
0.921 0.34483075 -0.21437682
0.921 0.34332779 -0.21437682
0.91799998 0.34071141 -0.21367852
0.91600001 0.33847433 -0.213213
0.91600001 0.33697954 -0.213213
0.91299999 0.33438599 -0.2125147
0.92199999 0.35122347 -0.21611418
0.921 0.3493396 -0.21587978
0.921 0.34783664 -0.21587978
0.921 0.34633368 -0.21587978
0.921 0.34483075 -0.21587978
0.921 0.34332779 -0.21587978
0.91799998 0.34071141 -0.21517658
0.91600001 0.33847433 -0.21470779
0.91600001 0.33697954 -0.21470779
0.91299999 0.33438599 -0.21400461
0.91000003 0.33180225 -0.21330142
0.91000003 0.33031726 -0.21330142
0.90799999 0.32810953 -0.21283261
0.90799999 0.32662782 -0.21283261
0.92400002 0.35198537 -0.21809085
0.92199999 0.3497189 -0.21761878
0.92199999 0.3482143 -0.21761878
0.92199999 0.34670973 -0.21761878
0.921 0.34483075 -0.21738274
0.921 0.34332779 -0.21738274
0.91799998 0.34071141 -0.21667466
0.91600001 0.33847433 -0.2162026
0.91600001 0.33697954 -0.2162026
0.91299999 0.33438599 -0.21549451
0.91000003 0.33180225 -0.21478644
0.91000003 0.33031726 -0.21478644
0.90799999 0.32810953 -0.21431437
0.90799999 0.32662782 -0.21431437
0.90600002 0.3244299 -0.21384232
0.90399998 0.3222385 -0.21337025
0.90399998 0.32076329 -0.21337025
0.89999998 0.3178753 -0.21242613
0.89999998 0.31640661 -0.21242613
0.89600003 0.31353822 -0.21148203
0.89399999 0.31137946 -0.21100996
0.89399999 0.30992058 -0.21100996
0.92199999 0.3482143 -0.21912336
0.92199999 0.34670973 -0.21912336
0.921 0.34483075 -0.2188857
0.921 0.34332779 -0.2188857
0.91799998 0.34071141 -0.21817273
0.91600001 0.33847433 -0.21769741
0.91600001 0.33697954 -0.21769741
0.91299999 0.33438599 -0.21698442
0.91000003 0.33180225 -0.21627145
0.91000003 0.33031726 -0.21627145
0.90799999 0.32810953 -0.21579611
0.90799999 0.32662782 -0.21579611
0.90600002 0.3244299 -0.2153208
0.90399998 0.3222385 -0.21484548
0.90399998 0.32076329 -0.21484548
0.89999998 0.3178753 -0.21389483
0.89999998 0.31640661 -0.21389483
0.89600003 0.31353822 -0.21294419
0.89399999 0.31137946 -0.21246886
0.89399999 0.30992058 -0.21246886
0.89399999 0.3084617 -0.21246886
0.89300001 0.3066594 -0.2122312
0.89300001 0.30520216 -0.2122312
0.89200002 0.30340475 -0.21199355
0.89200002 0.30194911 -0.21199355
0.89200002 0.30049351 -0.21199355
0.889 0.29803213 -0.21128055
0.889 0.29658142 -0.21128055
0.88800001 0.2947987 -0.2110429
0.88800001 0.29334959 -0.2110429
0.92400002 0.34896967 -0.22110656
0.92400002 0.34746182 -0.22110656
0.921 0.34483075 -0.22038868
0.921 0.34332779 -0.22038868
0.92000002 0.3414537 -0.22014938
0.917 0.33884385 -0.2194315
0.917 0.33734742 -0.2194315
0.91399997 0.33475223 -0.21871363
0.912 0.33253148 -0.21823505
0.912 0.33104321 -0.21823505
0.90899998 0.32847089 -0.21751715
0.90899998 0.32698753 -0.21751715
0.90799999 0.32514608 -0.21727787
0.90399998 0.3222385 -0.21632069
0.90399998 0.32076329 -0.21632069
0.90100002 0.31822851 -0.21560283
0.90100002 0.31675819 -0.21560283
0.89700001 0.31388816 -0.21464565
0.89700001 0.31242436 -0.21464565
0.89700001 0.31096059 -0.21464565
0.89600003 0.30915177 -0.21440636
0.89600003 0.30768961 -0.21440636
0.89600003 0.30622748 -0.21440636
0.89399999 0.30408502 -0.21392776
0.89399999 0.30262613 -0.21392776
0.89300001 0.30083036 -0.21368848
0.89200002 0.29903787 -0.2134492
0.89200002 0.29758224 -0.2134492
0.88999999 0.29546267 -0.2129706
0.88999999 0.29401028 -0.2129706
0.88999999 0.29255792 -0.2129706
0.88999999 0.29110557 -0.2129706
0.88999999 0.28965321 -0.2129706
0.889 0.28787702 -0.2127313
0.889 0.28642631 -0.2127313
0.889 0.28497556 -0.2127313
0.88800001 0.28320593 -0.21249202
0.88800001 0.28175682 -0.21249202
0.92400002 0.34896967 -0.22261442
0.92400002 0.34746182 -0.22261442
0.92199999 0.34520516 -0.22213256
0.92199999 0.34370056 -0.22213256
0.92000002 0.3414537 -0.22165072
0.917 0.33884385 -0.22092794
0.917 0.33734742 -0.22092794
0.91600001 0.33548474 -0.22068702
0.91299999 0.33289611 -0.21996424
0.91299999 0.33140621 -0.21996424
0.912 0.32955498 -0.21972331
0.912 0.32806671 -0.21972331
0.90899998 0.32550415 -0.21900053
0.90799999 0.32366434 -0.21875961
0.90799999 0.3221826 -0.21875961
0.90499997 0.31964126 -0.21803683
0.90499997 0.31816444 -0.21803683
0.90200001 0.31563783 -0.21731408
0.89999998 0.31346926 -0.21683222
0.89999998 0.31200057 -0.21683222
0.89999998 0.31053188 -0.21683222
0.898 0.30837643 -0.21635038
0.898 0.30691099 -0.21635038
0.89700001 0.30510545 -0.21610945
0.89700001 0.30364168 -0.21610945
0.89600003 0.30184102 -0.21586853
0.89399999 0.29970837 -0.21538667
0.89399999 0.29824945 -0.21538667
0.89300001 0.2964586 -0.21514575
0.89300001 0.29500136 -0.21514575
0.89300001 0.29354408 -0.21514575
0.89300001 0.29208684 -0.21514575
0.89300001 0.29062957 -0.21514575
0.89200002 0.28884849 -0.21490483
0.89200002 0.28739288 -0.21490483
0.89200002 0.28593725 -0.21490483
0.89200002 0.28448161 -0.21490483
0.89200002 0.28302601 -0.21490483
0.89200002 0.28157037 -0.21490483
0.88999999 0.27948669 -0.21442297
0.88999999 0.2780343 -0.21442297
0.88999999 0.27658194 -0.21442297
0.88999999 0.27512959 -0.21442297
0.88999999 0.27367723 -0.21442297
0.889 0.27191901 -0.21418205
0.88800001 0.27016404 -0.21394113
0.88800001 0.26871493 -0.21394113
0.88499999 0.26636291 -0.21321835
0.92400002 0.34896967 -0.22412229
0.92400002 0.34746182 -0.22412229
0.92199999 0.34520516 -0.22363716
0.92199999 0.34370056 -0.22363716
0.92000002 0.3414537 -0.22315206
0.917 0.33884385 -0.22242437
0.917 0.33734742 -0.22242437
0.91600001 0.33548474 -0.22218183
0.91299999 0.33289611 -0.22145414
0.91299999 0.33140621 -0.22145414
0.912 0.32955498 -0.2212116
0.912 0.32806671 -0.2212116
0.90899998 0.32550415 -0.22048391
0.90799999 0.32366434 -0.22024137
0.90799999 0.3221826 -0.22024137
0.90499997 0.31964126 -0.21951368
0.90499997 0.31816444 -0.21951368
0.90200001 0.31563783 -0.21878603
0.89999998 0.31346926 -0.21830091
0.89999998 0.31200057 -0.21830091
0.89999998 0.31053188 -0.21830091
0.898 0.30837643 -0.2178158
0.898 0.30691099 -0.2178158
0.89700001 0.30510545 -0.21757326
0.89700001 0.30364168 -0.21757326
0.89600003 0.30184102 -0.21733069
0.89399999 0.29970837 -0.21684557
0.89399999 0.29824945 -0.21684557
0.89300001 0.2964586 -0.21660303
0.89300001 0.29500136 -0.21660303
0.89300001 0.29354408 -0.21660303
0.89300001 0.29208684 -0.21660303
0.89300001 0.29062957 -0.21660303
0.89200002 0.28884849 -0.21636046
0.89200002 0.28739288 -0.21636046
0.89200002 0.28593725 -0.21636046
0.89200002 0.28448161 -0.21636046
0.89200002 0.28302601 -0.21636046
0.89200002 0.28157037 -0.21636046
0.88999999 0.27948669 -0.21587534
0.88999999 0.2780343 -0.21587534
0.88999999 0.27658194 -0.21587534
0.88999999 0.27512959 -0.21587534
0.88999999 0.27367723 -0.21587534
0.889 0.27191901 -0.2156328
0.88800001 0.27016404 -0.21539024
0.88800001 0.26871493 -0.21539024
0.88499999 0.26636291 -0.21466257
0.88 0.25911385 -0.21344978
0.87800002 0.25709221 -0.21296468
0.87400001 0.25449467 -0.21199445
0.87400001 0.25306842 -0.21199445
0.87 0.25049049 -0.21102422
