# .PCD v0.7 - Point Cloud Data file format
VERSION 0.7
FIELDS x y z
SIZE 4 4 4
TYPE F F F
COUNT 1 1 1
WIDTH 1399
HEIGHT 1
VIEWPOINT 0 0 0 1 0 0 0
POINTS 1399
DATA ascii
0.47999999 0.10530317 0.059033312
0.479 0.1027388 0.058910329
0.479 0.10195713 0.058910329
0.477 0.097639427 0.058664355
0.47600001 0.096657969 0.058541369
0.47600001 0.095881201 0.058541369
0.255 -0.011053922 0.031361446
0.25400001 -0.011425068 0.031238463
0.25400001 -0.011839561 0.031238463
0.47999999 0.10608646 0.05825001
0.47999999 0.10530317 0.05825001
0.477 0.099196225 0.057885949
0.477 0.098417826 0.057885949
0.47600001 0.097434737 0.057764594
0.47499999 0.096454903 0.057643238
0.47499999 0.095679767 0.057643238
0.26300001 -0.0071089063 0.031916153
0.255 -0.011053922 0.030945318
0.25400001 -0.011425068 0.030823965
0.25400001 -0.011839561 0.030823965
0.47999999 0.10608646 0.057466704
0.47999999 0.10530317 0.057466704
0.47499999 0.09723004 0.056868095
0.47400001 0.096251845 0.056748375
0.47400001 0.095478341 0.056748375
0.26300001 -0.0071089063 0.031486969
0.255 -0.011053922 0.030529188
0.25400001 -0.011425068 0.030409466
0.25400001 -0.011839561 0.030409466
0.48100001 0.10630748 0.056801494
0.48100001 0.10552256 0.056801494
0.47499999 0.09723004 0.056092951
0.47400001 0.096251845 0.055974863
0.26300001 -0.0071089063 0.031057782
0.255 -0.011053922 0.030113058
0.25400001 -0.011425068 0.029994968
0.25400001 -0.011839561 0.029994968
0.48100001 0.10630748 0.056016561
0.48100001 0.10552256 0.056016561
0.47499999 0.09723004 0.055317808
0.47400001 0.096251845 0.055201352
0.26300001 -0.0071089063 0.030628597
0.255 -0.011053922 0.029696928
0.25400001 -0.011425068 0.02958047
0.25400001 -0.011839561 0.02958047
0.48100001 0.10630748 0.055231623
0.48100001 0.10552256 0.055231623
0.47499999 0.09723004 0.054542664
0.47499999 0.096454903 0.054542664
0.255 -0.011053922 0.029280799
0.25400001 -0.011425068 0.029165972
0.48100001 0.10630748 0.05444669
0.48100001 0.10552256 0.05444669
0.47400001 0.09702535 0.053654328
0.47400001 0.096251845 0.053654328
0.255 -0.011053922 0.028864669
0.25400001 -0.011425068 0.028751476
0.48100001 0.10630748 0.053661756
0.48100001 0.10552256 0.053661756
0.47299999 0.096820645 0.052769251
0.47299999 0.096048772 0.052769251
0.255 -0.01022167 0.028448539
0.255 -0.010637796 0.028448539
0.25400001 -0.011010574 0.028336978
0.25400001 -0.011425068 0.028336978
0.48100001 0.10630748 0.052876819
0.48100001 0.10552256 0.052876819
0.47299999 0.096820645 0.051997371
0.47299999 0.096048772 0.051997371
0.255 -0.01022167 0.028032409
0.255 -0.010637796 0.028032409
0.25400001 -0.011010574 0.027922479
0.25400001 -0.011425068 0.027922479
0.48100001 0.10552256 0.052091885
0.472 0.096615955 0.051117193
0.472 0.095845714 0.051117193
0.472 0.095075473 0.051117193
0.257 -0.0094630616 0.027832877
0.255 -0.01022167 0.027616279
0.255 -0.010637796 0.027616279
0.25400001 -0.011010574 0.027507981
0.48100001 0.10552256 0.051306948
0.47099999 0.096411258 0.050240275
0.47099999 0.095642649 0.050240275
0.257 -0.0094630616 0.027413484
0.255 -0.01022167 0.027200149
0.255 -0.010637796 0.027200149
0.25400001 -0.011010574 0.027093483
0.25400001 -0.011425068 0.027093483
0.48100001 0.10552256 0.050522014
0.47400001 0.098572351 0.049786765
0.47400001 0.097798847 0.049786765
0.47099999 0.096411258 0.049471658
0.47099999 0.095642649 0.049471658
0.257 -0.0094630616 0.026994091
0.255 -0.01022167 0.02678402
0.255 -0.010637796 0.02678402
0.48100001 0.10630748 0.049737081
0.48100001 0.10552256 0.049737081
0.47299999 0.09836439 0.04890985
0.47299999 0.097592518 0.04890985
0.47099999 0.096411258 0.048703041
0.47099999 0.095642649 0.048703041
0.255 -0.01022167 0.02636789
0.255 -0.010637796 0.02636789
0.236 -0.021783903 0.024403224
0.48100001 0.10630748 0.048952144
0.48100001 0.10552256 0.048952144
0.47299999 0.09836439 0.04813797
0.47299999 0.097592518 0.04813797
0.47099999 0.096411258 0.047934428
0.47099999 0.095642649 0.047934428
0.257 -0.0094630616 0.026155304
0.257 -0.009882451 0.026155304
0.25600001 -0.010261756 0.026053533
0.25600001 -0.010679514 0.026053533
0.48100001 0.10630748 0.04816721
0.48100001 0.10552256 0.04816721
0.47299999 0.09836439 0.04736609
0.47299999 0.097592518 0.04736609
0.47099999 0.096411258 0.047165811
0.47099999 0.095642649 0.047165811
0.47999999 0.10608646 0.047283765
0.47999999 0.10530317 0.047283765
0.47299999 0.09836439 0.04659421
0.47299999 0.097592518 0.04659421
0.47099999 0.096411258 0.046397194
0.47099999 0.095642649 0.046397194
0.25400001 -0.011425068 0.025020994
0.25 -0.016548708 0.024626961
0.249 -0.016888848 0.024528453
0.249 -0.017295182 0.024528453
0.47999999 0.10608646 0.046500463
0.47999999 0.10530317 0.046500463
0.47299999 0.096820645 0.04582233
0.47999999 0.10608646 0.045717157
0.47999999 0.10530317 0.045717157
0.47099999 0.096411258 0.044859961
0.47099999 0.095642649 0.044859961
0.46700001 0.093306236 0.044478986
0.255 -0.011886173 0.024287241
0.255 -0.012302299 0.024287241
0.47999999 0.10608646 0.044933856
0.47999999 0.10530317 0.044933856
0.47099999 0.096411258 0.044091344
0.47099999 0.095642649 0.044091344
0.47999999 0.10608646 0.044150554
0.47999999 0.10530317 0.044150554
0.47099999 0.096411258 0.043322727
0.47099999 0.095642649 0.043322727
0.479 0.10586546 0.043276902
0.479 0.10508379 0.043276902
0.47099999 0.096411258 0.042554114
0.47099999 0.095642649 0.042554114
0.60699999 0.16089982 0.053850949
0.479 0.10586546 0.042495232
0.479 0.10508379 0.042495232
0.472 0.096615955 0.041874215
0.472 0.095845714 0.041874215
0.60699999 0.16089982 0.052860398
0.479 0.10586546 0.041713558
0.479 0.10508379 0.041713558
0.472 0.096615955 0.041103967
0.472 0.095845714 0.041103967
0.60699999 0.16089982 0.051869843
0.479 0.10586546 0.040931888
0.479 0.10508379 0.040931888
0.60699999 0.16089982 0.050879292
0.479 0.10586546 0.040150218
0.479 0.10508379 0.040150218
0.33000001 0.041162029 0.027660901
0.60699999 0.16089982 0.049888741
0.47799999 0.10564443 0.039286356
0.47799999 0.1048644 0.039286356
0.60600001 0.16063474 0.048817631
0.47799999 0.1048644 0.038506314
0.60600001 0.16063474 0.047828712
0.47799999 0.10564443 0.037726276
0.47799999 0.1048644 0.037726276
0.60600001 0.16063474 0.046839792
0.47799999 0.10564443 0.036946237
0.47799999 0.1048644 0.036946237
0.60600001 0.16063474 0.045850869
0.47799999 0.1048644 0.036166199
0.60500002 0.16036968 0.044787921
0.47799999 0.1048644 0.035386156
0.47099999 0.096411258 0.03486795
0.47099999 0.095642649 0.03486795
0.60500002 0.16036968 0.043800633
0.47799999 0.1048644 0.034606118
0.47 0.096206568 0.034026936
0.47 0.095439591 0.034026936
0.60500002 0.16036968 0.042813346
0.47799999 0.1048644 0.033826079
0.47 0.096206568 0.033259954
0.47 0.095439591 0.033259954
0.60399997 0.16010459 0.041756921
0.47799999 0.1048644 0.033046041
0.47 0.096206568 0.032492969
0.47 0.095439591 0.032492969
0.60399997 0.16010459 0.040771265
0.47799999 0.1048644 0.032265998
0.46900001 0.096001871 0.031658482
0.46900001 0.095236525 0.031658482
0.60399997 0.16010459 0.039785609
0.46900001 0.096001871 0.03089313
0.46900001 0.095236525 0.03089313
0.60299999 0.15983953 0.038735714
0.46900001 0.096001871 0.030127779
0.46900001 0.095236525 0.030127779
0.60299999 0.15983953 0.03775169
0.46900001 0.096001871 0.029362425
0.46900001 0.095236525 0.029362425
0.60299999 0.15983953 0.036767665
0.46900001 0.096001871 0.028597074
0.46900001 0.095236525 0.028597074
0.60100001 0.15930937 0.035664957
0.46900001 0.096001871 0.02783172
0.46900001 0.095236525 0.02783172
0.60100001 0.15930937 0.034684196
0.46900001 0.096001871 0.027066369
0.46900001 0.095236525 0.027066369
0.60100001 0.15930937 0.033703435
0.46900001 0.096001871 0.026301015
0.46900001 0.095236525 0.026301015
0.60000002 0.15904431 0.032668225
0.46900001 0.096001871 0.025535664
0.46900001 0.095236525 0.025535664
0.60000002 0.15904431 0.031689096
0.47 0.096206568 0.024823125
0.47 0.095439591 0.024823125
0.60000002 0.15904431 0.030709969
0.47 0.096206568 0.02405614
0.47 0.095439591 0.02405614
0.60000002 0.15904431 0.02973084
0.47 0.096206568 0.023289157
0.47 0.095439591 0.023289157
0.60000002 0.15904431 0.02875171
0.47 0.096206568 0.022522172
0.47 0.095439591 0.022522172
0.60000002 0.15904431 0.027772581
0.472 0.098156437 0.021847764
0.47 0.096973538 0.021755189
0.60000002 0.15904431 0.026793452
0.472 0.098156437 0.021077516
0.47 0.096973538 0.020988204
0.60000002 0.15904431 0.025814323
0.47799999 0.1048644 0.020565409
0.46900001 0.096001871 0.020178195
0.46900001 0.095236525 0.020178195
0.60000002 0.15904431 0.024835194
0.47799999 0.1048644 0.019785371
0.60000002 0.15904431 0.023856066
0.47799999 0.1048644 0.01900533
0.60000002 0.15904431 0.022876937
0.477 0.10464503 0.018187163
0.46900001 0.096001871 0.017882138
0.46900001 0.095236525 0.017882138
0.60100001 0.15930937 0.021934303
0.477 0.10464503 0.017408757
0.46900001 0.096001871 0.017116785
0.46900001 0.095236525 0.017116785
0.47799999 0.1048644 0.016665213
0.46900001 0.096001871 0.016351433
0.46900001 0.095236525 0.016351433
0.60100001 0.15930937 0.019972781
0.47799999 0.1048644 0.015885172
0.46900001 0.096001871 0.015586081
0.46900001 0.095236525 0.015586081
0.60100001 0.15930937 0.01899202
0.47799999 0.1048644 0.015105134
0.46900001 0.096001871 0.014820728
0.46900001 0.095236525 0.014820728
0.46900001 0.096001871 0.014055376
0.46900001 0.095236525 0.014055376
0.46900001 0.096001871 0.013290023
0.46900001 0.095236525 0.013290023
0.60299999 0.15983953 0.016103147
0.472 0.098156437 0.012604786
0.47099999 0.097179867 0.01257808
0.46900001 0.096001871 0.012524671
0.46900001 0.095236525 0.012524671
0.60299999 0.15983953 0.015119122
0.46900001 0.096001871 0.011759318
0.46900001 0.095236525 0.011759318
0.472 0.098156437 0.011064289
0.47099999 0.097179867 0.011040848
0.46900001 0.096001871 0.010993966
0.46900001 0.095236525 0.010993966
0.47 0.096206568 0.010250422
0.47 0.095439591 0.010250422
0.47 0.096206568 0.009483438
0.47 0.095439591 0.009483438
0.60399997 0.16010459 0.01120157
0.47099999 0.096411258 0.0087349992
0.47099999 0.095642649 0.0087349992
0.60399997 0.16010459 0.010215913
0.47099999 0.096411258 0.0079663834
0.47099999 0.095642649 0.0079663834
0.60399997 0.16010459 0.009230257
0.47099999 0.096411258 0.0071977666
0.47099999 0.095642649 0.0071977666
0.60399997 0.16010459 0.0082446001
0.47299999 0.096820645 0.0064564506
0.47299999 0.096048772 0.0064564506
0.60399997 0.16010459 0.0072589442
0.47299999 0.096820645 0.0056845704
0.47299999 0.096048772 0.0056845704
0.60500002 0.16036968 0.0062836744
0.47299999 0.096048772 0.0049126907
0.60500002 0.16036968 0.0052963858
0.47499999 0.098780312 0.0041583194
0.47400001 0.097798847 0.004149565
0.47299999 0.096048772 0.0041408106
0.60500002 0.16036968 0.0043090973
0.47400001 0.098572351 0.0033760532
0.47400001 0.097798847 0.0033760532
0.47299999 0.096820645 0.0033689307
0.47299999 0.096048772 0.0033689307
0.477 0.10542343 0.002619013
0.477 0.10464503 0.002619013
0.47400001 0.098572351 0.0026025414
0.47400001 0.097798847 0.0026025414
0.472 0.096615955 0.0025915601
0.472 0.095845714 0.0025915601
0.472 0.096615955 0.001821312
0.472 0.095845714 0.001821312
0.47400001 0.098572351 0.0010555175
0.47299999 0.097592518 0.0010532907
0.472 0.096615955 0.0010510639
0.472 0.095845714 0.0010510639
0.47400001 0.098572351 0.00028200561
0.47299999 0.097592518 0.00028141064
0.47299999 0.096820645 0.00028141064
0.47299999 0.096048772 0.00028141064
0.47600001 0.10520241 -0.00049358013
0.47499999 0.10420626 -0.00049254321
0.47299999 0.09836439 -0.00049046933
0.47299999 0.097592518 -0.00049046933
0.47099999 0.096411258 -0.00048839545
0.47099999 0.095642649 -0.00048839545
0.47600001 0.10520241 -0.0012703558
0.47499999 0.10420626 -0.001267687
0.47299999 0.09836439 -0.0012623493
0.472 0.097386196 -0.0012596805
0.47099999 0.096411258 -0.0012570117
0.47099999 0.095642649 -0.0012570117
0.47499999 0.10420626 -0.0020428307
0.47299999 0.09836439 -0.0020342292
0.472 0.097386196 -0.0020299286
0.47099999 0.096411258 -0.002025628
0.47099999 0.095642649 -0.002025628
0.47499999 0.1049814 -0.0028179744
0.47400001 0.10398688 -0.0028120419
0.47099999 0.097948477 -0.0027942441
0.47099999 0.097179867 -0.0027942441
0.47 0.096206568 -0.0027883116
0.47 0.095439591 -0.0027883116
0.47400001 0.10476039 -0.003585554
0.47400001 0.10398688 -0.003585554
0.47099999 0.097948477 -0.0035628604
0.47 0.096973538 -0.003555296
0.46900001 0.096001871 -0.0035477316
0.46900001 0.095236525 -0.0035477316
0.52499998 -0.053600326 -0.0039713411
0.52499998 -0.054457057 -0.0039713411
0.47400001 0.10476039 -0.0043590656
0.47400001 0.10398688 -0.0043590656
0.47099999 0.097948477 -0.0043314765
0.47 0.096973538 -0.0043222802
0.46900001 0.096001871 -0.0043130843
0.46900001 0.095236525 -0.0043130843
0.52499998 -0.053600326 -0.0048280787
0.52499998 -0.054457057 -0.0048280787
0.52499998 -0.055313785 -0.0048280787
0.52399999 -0.056063525 -0.0048188828
0.52399999 -0.056918625 -0.0048188828
0.52399999 -0.05777372 -0.0048188828
0.47400001 0.10476039 -0.0051325778
0.47400001 0.10398688 -0.0051325778
0.47 0.097740516 -0.0050892648
0.46900001 0.096767217 -0.0050784368
0.46799999 0.095797174 -0.0050676083
0.46799999 0.095033459 -0.0050676083
0.47400001 0.10476039 -0.0059060897
0.47400001 0.10398688 -0.0059060897
0.47 0.097740516 -0.005856249
0.46900001 0.096767217 -0.0058437893
0.46799999 0.095797174 -0.0058313287
0.46799999 0.095033459 -0.0058313287
0.47 0.097740516 -0.0066232332
0.46900001 0.096767217 -0.0066091414
0.46799999 0.095797174 -0.0065950495
0.46799999 0.095033459 -0.0065950495
0.46900001 0.097532563 -0.0073744939
0.46900001 0.096767217 -0.0073744939
0.46799999 0.095797174 -0.0073587699
0.46799999 0.095033459 -0.0073587699
0.47400001 0.10476039 -0.0082266256
0.47299999 0.1037675 -0.0082092695
0.46900001 0.097532563 -0.0081398468
0.46900001 0.096767217 -0.0081398468
0.46799999 0.095797174 -0.0081224907
0.46799999 0.095033459 -0.0081224907
0.47400001 0.10476039 -0.0090001374
0.47299999 0.1037675 -0.0089811496
0.46900001 0.097532563 -0.0089051994
0.46799999 0.096560888 -0.0088862116
0.46700001 0.095592484 -0.0088672237
0.46700001 0.094830401 -0.0088672237
0.47400001 0.10476039 -0.0097736493
0.47400001 0.10398688 -0.0097736493
0.46900001 0.097532563 -0.0096705519
0.46799999 0.096560888 -0.0096499315
0.46700001 0.095592484 -0.0096293129
0.46700001 0.094830401 -0.0096293129
0.47499999 0.1049814 -0.010569412
0.47400001 0.10398688 -0.010547161
0.47 0.097740516 -0.010458156
0.46799999 0.096560888 -0.010413652
0.46799999 0.095797174 -0.010413652
0.46700001 0.094830401 -0.010391401
0.47499999 0.1049814 -0.011344556
0.47400001 0.10398688 -0.011320673
0.47 0.097740516 -0.01122514
0.46799999 0.096560888 -0.011177373
0.46799999 0.095797174 -0.011177373
0.46700001 0.094830401 -0.01115349
0.52200001 -0.056701381 -0.01246707
0.52200001 -0.057553213 -0.01246707
0.47499999 0.1049814 -0.012119699
0.47400001 0.10398688 -0.012094185
0.47 0.097740516 -0.011992124
0.46900001 0.096767217 -0.011966609
0.46900001 0.096001871 -0.011966609
0.46700001 0.094830401 -0.011915579
0.52200001 -0.056701381 -0.013318912
0.52200001 -0.057553213 -0.013318912
0.47499999 0.1049814 -0.012894844
0.47400001 0.10398688 -0.012867697
0.47 0.097740516 -0.012759108
0.46900001 0.096767217 -0.012731962
0.46799999 0.095797174 -0.012704814
0.46700001 0.094830401 -0.012677668
0.52200001 -0.055849545 -0.014170755
0.523 -0.056810003 -0.014197902
0.523 -0.057663467 -0.014197902
0.47499999 0.1049814 -0.013669987
0.47499999 0.10420626 -0.013669987
0.47 0.097740516 -0.013526092
0.46900001 0.096767217 -0.013497314
0.46799999 0.095797174 -0.013468535
0.46799999 0.095033459 -0.013468535
0.52200001 -0.054145876 -0.015022597
0.52200001 -0.054997712 -0.015022597
0.52200001 -0.055849545 -0.015022597
0.523 -0.056810003 -0.015051375
0.523 -0.057663467 -0.015051375
0.47499999 0.1049814 -0.014445131
0.47499999 0.10420626 -0.014445131
0.47 0.097740516 -0.014293077
0.46900001 0.096767217 -0.014262667
0.46799999 0.095797174 -0.014232256
0.46799999 0.095033459 -0.014232256
0.52200001 -0.054145876 -0.01587444
0.52200001 -0.054997712 -0.01587444
0.52200001 -0.055849545 -0.01587444
0.47499999 0.1049814 -0.015220274
0.47499999 0.10420626 -0.015220274
0.47 0.097740516 -0.015060062
0.46900001 0.096767217 -0.015028019
0.46799999 0.095797174 -0.014995975
0.46799999 0.095033459 -0.014995975
0.52200001 -0.054145876 -0.016726281
0.47600001 0.10520241 -0.016029093
0.47499999 0.10420626 -0.015995419
0.47099999 0.097948477 -0.01586072
0.46900001 0.096767217 -0.015793372
0.46799999 0.095797174 -0.015759697
0.46799999 0.095033459 -0.015759697
0.47600001 0.10520241 -0.016805869
0.47499999 0.10420626 -0.016770562
0.47099999 0.097948477 -0.016629336
0.46900001 0.096767217 -0.016558724
0.46799999 0.095797174 -0.016523417
0.46799999 0.095033459 -0.016523417
0.47600001 0.10520241 -0.017582646
0.47499999 0.10420626 -0.017545706
0.47099999 0.097948477 -0.017397951
0.46900001 0.096767217 -0.017324077
0.46799999 0.095797174 -0.017287137
0.46799999 0.095033459 -0.017287137
0.47600001 0.10520241 -0.018359421
0.47499999 0.10420626 -0.018320849
0.47099999 0.097948477 -0.018166568
0.47 0.096973538 -0.018127998
0.46900001 0.096001871 -0.018089429
0.46900001 0.095236525 -0.018089429
0.47600001 0.10520241 -0.019136196
0.47499999 0.10420626 -0.019095993
0.472 0.099696919 -0.018975388
0.47099999 0.098717086 -0.018935185
0.47099999 0.097948477 -0.018935185
0.47 0.096973538 -0.018894983
0.46900001 0.096001871 -0.018854782
0.46900001 0.095236525 -0.018854782
0.47499999 0.1049814 -0.019871136
0.47499999 0.10420626 -0.019871136
0.472 0.099696919 -0.019745635
0.47099999 0.098717086 -0.019703802
0.47099999 0.097948477 -0.019703802
0.47 0.096973538 -0.019661967
0.46900001 0.096001871 -0.019620134
0.46900001 0.095236525 -0.019620134
0.47499999 0.1049814 -0.020646282
0.47499999 0.10420626 -0.020646282
0.47400001 0.10321338 -0.020602815
0.47400001 0.10243987 -0.020602815
0.472 0.099696919 -0.020515883
0.47099999 0.098717086 -0.020472417
0.47099999 0.097948477 -0.020472417
0.47 0.096973538 -0.020428952
0.46900001 0.096001871 -0.020385487
0.46900001 0.095236525 -0.020385487
0.47499999 0.1049814 -0.021421425
0.47499999 0.10420626 -0.021421425
0.472 0.099696919 -0.021286132
0.47099999 0.098717086 -0.021241033
0.47099999 0.097948477 -0.021241033
0.47 0.096973538 -0.021195937
0.46900001 0.096001871 -0.021150839
0.46900001 0.095236525 -0.021150839
0.47600001 0.10520241 -0.022243299
0.47499999 0.10420626 -0.022196569
0.472 0.099696919 -0.02205638
0.47099999 0.098717086 -0.02200965
0.47099999 0.097948477 -0.02200965
0.47 0.096973538 -0.02196292
0.46900001 0.096001871 -0.021916192
0.46900001 0.095236525 -0.021916192
0.47600001 0.10520241 -0.023020074
0.47499999 0.10420626 -0.022971712
0.47299999 0.099908136 -0.022874989
0.472 0.098926678 -0.022826629
0.472 0.098156437 -0.022826629
0.47 0.096973538 -0.022729905
0.46900001 0.096001871 -0.022681544
0.46900001 0.095236525 -0.022681544
0.47600001 0.10520241 -0.023796851
0.47499999 0.10420626 -0.023746856
0.47299999 0.099908136 -0.023646869
0.472 0.098926678 -0.023596875
0.472 0.098156437 -0.023596875
0.47 0.096973538 -0.023496889
0.46900001 0.096001871 -0.023446897
0.46900001 0.095236525 -0.023446897
0.47299999 0.099908136 -0.024418749
0.472 0.098926678 -0.024367124
0.472 0.098156437 -0.024367124
0.47099999 0.097179867 -0.024315499
0.46900001 0.096001871 -0.024212249
0.46900001 0.095236525 -0.024212249
0.47400001 0.10011936 -0.025243888
0.47299999 0.099136263 -0.025190629
0.47299999 0.09836439 -0.025190629
0.47099999 0.097179867 -0.025084114
0.47 0.096206568 -0.025030859
0.47 0.095439591 -0.025030859
0.47499999 0.10188086 -0.026072288
0.47499999 0.10110572 -0.026072288
0.47400001 0.10011936 -0.0260174
0.47299999 0.099136263 -0.025962509
0.47299999 0.09836439 -0.025962509
0.47099999 0.097179867 -0.02585273
0.47 0.096206568 -0.025797842
0.47 0.095439591 -0.025797842
0.47499999 0.10188086 -0.026847431
0.47499999 0.10110572 -0.026847431
0.47400001 0.10011936 -0.026790911
0.47299999 0.099136263 -0.026734389
0.47299999 0.09836439 -0.026734389
0.47099999 0.097179867 -0.026621347
0.47 0.096206568 -0.026564827
0.47 0.095439591 -0.026564827
0.47400001 0.10011936 -0.027564423
0.47299999 0.099136263 -0.02750627
0.47299999 0.09836439 -0.02750627
0.47099999 0.097179867 -0.027389962
0.47 0.096206568 -0.02733181
0.47 0.095439591 -0.02733181
0.47499999 0.10033058 -0.028397718
0.47299999 0.099136263 -0.02827815
0.47299999 0.09836439 -0.02827815
0.472 0.097386196 -0.028218364
0.47 0.096206568 -0.028098796
0.47 0.095439591 -0.028098796
0.47499999 0.10033058 -0.029172862
0.47400001 0.099345855 -0.029111447
0.47400001 0.098572351 -0.029111447
0.472 0.097386196 -0.028988613
0.47099999 0.096411258 -0.028927196
0.47099999 0.095642649 -0.028927196
0.47400001 0.098572351 -0.029884959
0.472 0.097386196 -0.029758861
0.47099999 0.096411258 -0.029695813
0.47099999 0.095642649 -0.029695813
0.47400001 0.098572351 -0.03065847
0.472 0.097386196 -0.03052911
0.47099999 0.096411258 -0.030464428
0.47099999 0.095642649 -0.030464428
0.29699999 0.1315553 -0.019694721
0.29699999 0.13107064 -0.019694721
0.47400001 0.098572351 -0.03143198
0.47299999 0.097592518 -0.03136567
0.47099999 0.096411258 -0.031233044
0.47099999 0.095642649 -0.031233044
0.29800001 0.13199826 -0.020247336
0.29800001 0.13151196 -0.020247336
0.47400001 0.098572351 -0.032205492
0.472 0.097386196 -0.032069605
0.47099999 0.096411258 -0.032001659
0.47099999 0.095642649 -0.032001659
0.46900001 0.094471186 -0.031865776
0.46900001 0.09370584 -0.031865776
0.29800001 0.13151196 -0.020733638
0.47400001 0.098572351 -0.032979004
0.472 0.097386196 -0.032839853
0.47099999 0.096411258 -0.032770276
0.47099999 0.095642649 -0.032770276
0.46900001 0.094471186 -0.032631125
0.46900001 0.09370584 -0.032631125
0.46700001 0.092544161 -0.032491975
0.465 0.091389008 -0.032352824
0.29800001 0.13199826 -0.021219937
0.29800001 0.13151196 -0.021219937
0.47299999 0.09836439 -0.033681307
0.472 0.097386196 -0.033610102
0.47 0.096206568 -0.033467688
0.47 0.095439591 -0.033467688
0.46900001 0.094471186 -0.033396479
0.29899999 0.13195327 -0.021779077
0.29899999 0.13146535 -0.021779077
0.29899999 0.13097742 -0.021779077
0.47600001 0.10442565 -0.034671709
0.47299999 0.09836439 -0.034453187
0.46799999 0.094269745 -0.034088992
0.29899999 0.13097742 -0.02226701
0.47600001 0.10442565 -0.035448484
0.47299999 0.09836439 -0.035225067
0.47 0.096206568 -0.035001654
0.47 0.095439591 -0.035001654
0.46799999 0.094269745 -0.03485271
0.46799999 0.093506038 -0.03485271
0.29800001 0.13053937 -0.022678839
0.47600001 0.10442565 -0.036225259
0.472 0.098156437 -0.035920847
0.47 0.096206568 -0.035768639
0.46900001 0.095236525 -0.035692535
0.46799999 0.094269745 -0.035616431
0.46799999 0.093506038 -0.035616431
0.47400001 0.10166637 -0.036846567
0.47400001 0.10089286 -0.036846567
0.47099999 0.097948477 -0.036613356
0.47 0.096206568 -0.036535624
0.46900001 0.095236525 -0.036457889
0.46700001 0.094068319 -0.036302418
0.46700001 0.093306236 -0.036302418
0.465 0.09214782 -0.036146946
0.52600002 -0.057135873 -0.040888805
0.52600002 -0.057994235 -0.040888805
0.47400001 0.10321338 -0.037620079
0.47400001 0.10243987 -0.037620079
0.47400001 0.10166637 -0.037620079
0.47400001 0.10089286 -0.037620079
0.47099999 0.097948477 -0.037381973
0.47 0.096206568 -0.037302606
0.46900001 0.095236525 -0.037223242
0.46700001 0.094068319 -0.037064508
0.46700001 0.093306236 -0.037064508
0.465 0.09214782 -0.036905773
0.52600002 -0.057135873 -0.041747175
0.52600002 -0.057994235 -0.041747175
0.52600002 -0.058852594 -0.041747175
0.52700001 -0.059824474 -0.041826542
0.296 0.13159539 -0.023975743
0.47299999 0.10145188 -0.038312588
0.47299999 0.10068001 -0.038312588
0.472 0.099696919 -0.038231589
0.47099999 0.098717086 -0.03815059
0.47099999 0.097948477 -0.03815059
0.46900001 0.096767217 -0.037988596
0.46900001 0.096001871 -0.037988596
0.46799999 0.095033459 -0.037907593
0.46599999 0.093866885 -0.037745595
0.46599999 0.093106434 -0.037745595
0.465 0.09214782 -0.037664596
0.465 0.091389008 -0.037664596
0.52600002 -0.057994235 -0.042605545
0.52600002 -0.058852594 -0.042605545
0.52700001 -0.059824474 -0.042686544
0.52700001 -0.060684469 -0.042686544
0.528 -0.061661243 -0.042767543
0.29499999 0.13211361 -0.024376148
0.29499999 0.13115081 -0.024376148
0.47299999 0.10145188 -0.039084468
0.47299999 0.10068001 -0.039084468
0.472 0.099696919 -0.039001837
0.47099999 0.098717086 -0.038919207
0.47099999 0.097948477 -0.038919207
0.46900001 0.096767217 -0.038753945
0.46900001 0.096001871 -0.038753945
0.46799999 0.095033459 -0.038671315
0.46599999 0.093866885 -0.038506053
0.46599999 0.093106434 -0.038506053
0.465 0.09214782 -0.038423423
0.465 0.091389008 -0.038423423
0.52499998 -0.057883974 -0.043381281
0.52600002 -0.058852594 -0.043463916
0.52700001 -0.059824474 -0.043546546
0.52700001 -0.060684469 -0.043546546
0.52700001 -0.061544459 -0.043546546
0.294 0.13166577 -0.02477329
0.47299999 0.10145188 -0.039856348
0.47299999 0.10068001 -0.039856348
0.47099999 0.099485688 -0.039687824
0.47 0.098507494 -0.039603561
0.47 0.097740516 -0.039603561
0.46900001 0.096767217 -0.039519299
0.46900001 0.096001871 -0.039519299
0.46799999 0.095033459 -0.039435033
0.46599999 0.093866885 -0.039266508
0.46599999 0.093106434 -0.039266508
0.465 0.09214782 -0.039182246
0.465 0.091389008 -0.039182246
0.52499998 -0.058740705 -0.04423802
0.52600002 -0.059710957 -0.044322286
0.52600002 -0.06056932 -0.044322286
0.52700001 -0.061544459 -0.044406548
0.472 0.1012374 -0.040542334
0.472 0.10046716 -0.040542334
0.47099999 0.099485688 -0.04045644
0.47 0.098507494 -0.040370546
0.47 0.097740516 -0.040370546
0.46900001 0.096767217 -0.040284652
0.46900001 0.096001871 -0.040284652
0.46700001 0.094830401 -0.040112861
0.46599999 0.093866885 -0.040026966
0.46599999 0.093106434 -0.040026966
0.46399999 0.091949649 -0.039855175
0.46399999 0.091192469 -0.039855175
0.463 0.090240382 -0.039769281
0.52499998 -0.058740705 -0.045094755
0.52600002 -0.059710957 -0.045180656
0.52600002 -0.06056932 -0.045180656
0.52700001 -0.061544459 -0.04526655
0.472 0.1012374 -0.041312583
0.472 0.10046716 -0.041312583
0.47 0.097740516 -0.041137528
0.46900001 0.096767217 -0.041050006
0.46900001 0.096001871 -0.041050006
0.46700001 0.094830401 -0.040874951
0.46599999 0.093866885 -0.040787421
0.46599999 0.093106434 -0.040787421
0.46399999 0.091949649 -0.04061237
0.46399999 0.091192469 -0.04061237
0.463 0.090240382 -0.040524844
0.461 0.089098282 -0.040349789
0.52399999 -0.05777372 -0.045863967
0.52499998 -0.058740705 -0.045951493
0.52600002 -0.059710957 -0.046039026
0.52600002 -0.06056932 -0.046039026
0.52600002 -0.061427679 -0.046039026
0.47299999 0.10299563 -0.042171989
0.47299999 0.10222375 -0.042171989
0.472 0.1012374 -0.042082831
0.472 0.10046716 -0.042082831
0.47099999 0.099485688 -0.04199367
0.46900001 0.098297909 -0.041815355
0.46900001 0.097532563 -0.041815355
0.46799999 0.096560888 -0.041726198
0.46799999 0.095797174 -0.041726198
0.46700001 0.094830401 -0.041637041
0.465 0.093665458 -0.041458722
0.465 0.092906639 -0.041458722
0.46399999 0.091949649 -0.041369561
0.46399999 0.091192469 -0.041369561
0.463 0.090240382 -0.041280404
0.461 0.089098282 -0.041102085
0.52399999 -0.05777372 -0.046719074
0.52499998 -0.058740705 -0.046808232
0.52600002 -0.059710957 -0.046897393
0.47299999 0.10299563 -0.042943869
0.47299999 0.10222375 -0.042943869
0.472 0.1012374 -0.04285308
0.472 0.10046716 -0.04285308
0.47099999 0.099485688 -0.042762287
0.46900001 0.098297909 -0.042580709
0.46900001 0.097532563 -0.042580709
0.46799999 0.096560888 -0.042489916
0.46799999 0.095797174 -0.042489916
0.46700001 0.094830401 -0.042399127
0.465 0.093665458 -0.042217545
0.465 0.092906639 -0.042217545
0.46399999 0.091949649 -0.042126756
0.46399999 0.091192469 -0.042126756
0.463 0.090240382 -0.042035963
0.461 0.089098282 -0.041854385
0.47299999 0.10299563 -0.043715749
0.47299999 0.10222375 -0.043715749
0.472 0.1012374 -0.043623328
0.472 0.10046716 -0.043623328
0.47099999 0.099485688 -0.043530904
0.47 0.098507494 -0.043438483
0.47 0.097740516 -0.043438483
0.46799999 0.096560888 -0.043253638
0.46799999 0.095797174 -0.043253638
0.46700001 0.094830401 -0.043161217
0.465 0.093665458 -0.042976372
0.465 0.092906639 -0.042976372
0.46399999 0.091949649 -0.042883947
0.46399999 0.091192469 -0.042883947
0.463 0.090240382 -0.042791527
0.461 0.089098282 -0.042606682
0.52399999 -0.05777372 -0.048429284
0.52399999 -0.058628816 -0.048429284
0.52499998 -0.059597433 -0.048521709
0.47400001 0.10398688 -0.044581685
0.47299999 0.10299563 -0.044487629
0.47299999 0.10222375 -0.044487629
0.472 0.1012374 -0.044393577
0.472 0.10046716 -0.044393577
0.47099999 0.099485688 -0.044299521
0.46900001 0.098297909 -0.044111412
0.46900001 0.097532563 -0.044111412
0.46799999 0.096560888 -0.04401736
0.46799999 0.095797174 -0.04401736
0.46700001 0.094830401 -0.043923303
0.465 0.093665458 -0.043735195
0.465 0.092906639 -0.043735195
0.46399999 0.091949649 -0.043641139
0.46399999 0.091192469 -0.043641139
0.463 0.090240382 -0.043547086
0.52399999 -0.056918625 -0.049284391
0.52399999 -0.05777372 -0.049284391
0.52399999 -0.058628816 -0.049284391
0.52499998 -0.059597433 -0.049378444
0.47400001 0.10398688 -0.045355197
0.47299999 0.10299563 -0.045259509
0.47299999 0.10222375 -0.045259509
0.472 0.1012374 -0.045163825
0.472 0.10046716 -0.045163825
0.47099999 0.099485688 -0.045068137
0.46900001 0.098297909 -0.044876765
0.46900001 0.097532563 -0.044876765
0.46799999 0.096560888 -0.044781078
0.46799999 0.095797174 -0.044781078
0.46700001 0.094830401 -0.044685394
0.465 0.093665458 -0.044494022
0.465 0.092906639 -0.044494022
0.46399999 0.091949649 -0.044398334
0.46399999 0.091192469 -0.044398334
0.47400001 0.10398688 -0.046128709
0.47299999 0.10299563 -0.046031389
0.47299999 0.10222375 -0.046031389
0.472 0.1012374 -0.045934074
0.472 0.10046716 -0.045934074
0.47099999 0.099485688 -0.04583675
0.46900001 0.098297909 -0.045642119
0.46900001 0.097532563 -0.045642119
0.46799999 0.096560888 -0.045544799
0.46799999 0.095797174 -0.045544799
0.46700001 0.094830401 -0.045447484
0.465 0.093665458 -0.045252845
0.465 0.092906639 -0.045252845
0.46399999 0.091949649 -0.045155525
0.46399999 0.091192469 -0.045155525
0.47400001 0.10553389 -0.046902221
0.47400001 0.10476039 -0.046902221
0.47400001 0.10398688 -0.046902221
0.47400001 0.10321338 -0.046902221
0.47099999 0.099485688 -0.046605367
0.46900001 0.098297909 -0.046407472
0.46900001 0.097532563 -0.046407472
0.46799999 0.096560888 -0.046308521
0.46799999 0.095797174 -0.046308521
0.46599999 0.094627336 -0.046110619
0.465 0.093665458 -0.046011671
0.465 0.092906639 -0.046011671
0.463 0.091751486 -0.045813773
0.47400001 0.10476039 -0.047675733
0.47400001 0.10398688 -0.047675733
0.47400001 0.10321338 -0.047675733
0.47099999 0.099485688 -0.047373984
0.46900001 0.098297909 -0.047172822
0.46900001 0.097532563 -0.047172822
0.46799999 0.096560888 -0.047072239
0.46799999 0.095797174 -0.047072239
0.47400001 0.10476039 -0.048449244
0.47400001 0.10398688 -0.048449244
0.47299999 0.10299563 -0.04834703
0.47299999 0.10222375 -0.04834703
0.47099999 0.099485688 -0.048142601
0.46900001 0.098297909 -0.047938175
0.46900001 0.097532563 -0.047938175
0.46799999 0.096560888 -0.047835961
0.46799999 0.095797174 -0.047835961
0.47400001 0.10476039 -0.049222756
0.47299999 0.1037675 -0.04911891
0.47299999 0.10299563 -0.04911891
0.47299999 0.10222375 -0.04911891
0.47099999 0.099485688 -0.048911218
0.46900001 0.098297909 -0.048703529
0.46900001 0.097532563 -0.048703529
0.46799999 0.096560888 -0.048599683
0.46799999 0.095797174 -0.048599683
0.46000001 0.086653039 -0.047768921
0.45899999 0.085715629 -0.047665071
0.47400001 0.10476039 -0.049996268
0.47299999 0.1037675 -0.04989079
0.47299999 0.10299563 -0.04989079
0.47299999 0.10222375 -0.04989079
0.47099999 0.099485688 -0.049679834
0.46900001 0.098297909 -0.049468882
0.46900001 0.097532563 -0.049468882
0.46799999 0.096560888 -0.049363401
0.46799999 0.095797174 -0.049363401
0.46000001 0.086653039 -0.048519585
0.45899999 0.085715629 -0.048414107
0.47400001 0.10476039 -0.05076978
0.47299999 0.1037675 -0.05066267
0.47299999 0.10299563 -0.05066267
0.47299999 0.10222375 -0.05066267
0.472 0.1012374 -0.050555561
0.472 0.10046716 -0.050555561
0.47099999 0.099485688 -0.050448451
0.46900001 0.098297909 -0.050234232
0.46900001 0.097532563 -0.050234232
0.46799999 0.096560888 -0.050127123
0.46799999 0.095797174 -0.050127123
0.46000001 0.086653039 -0.04927025
0.45899999 0.085715629 -0.04916314
0.47400001 0.10476039 -0.051543292
0.47299999 0.1037675 -0.051434547
0.47299999 0.10299563 -0.051434547
0.47299999 0.10222375 -0.051434547
0.472 0.1012374 -0.051325809
0.472 0.10046716 -0.051325809
0.47099999 0.099485688 -0.051217064
0.46900001 0.098297909 -0.050999586
0.46900001 0.097532563 -0.050999586
0.46799999 0.096560888 -0.050890844
0.46799999 0.095797174 -0.050890844
0.46000001 0.086653039 -0.050020915
0.45899999 0.085715629 -0.049912173
0.47499999 0.10653167 -0.052427176
0.47400001 0.10476039 -0.052316803
0.47299999 0.1037675 -0.052206427
0.47299999 0.10299563 -0.052206427
0.47299999 0.10222375 -0.052206427
0.472 0.1012374 -0.052096058
0.472 0.10046716 -0.052096058
0.47099999 0.099485688 -0.051985681
0.46900001 0.098297909 -0.051764939
0.46900001 0.097532563 -0.051764939
0.46799999 0.096560888 -0.051654562
0.46799999 0.095797174 -0.051654562
0.46000001 0.086653039 -0.050771583
0.46000001 0.085902378 -0.050771583
0.47400001 0.10630739 -0.053090315
0.47400001 0.10476039 -0.053090315
0.47299999 0.1037675 -0.052978307
0.47299999 0.10299563 -0.052978307
0.47299999 0.10222375 -0.052978307
0.47099999 0.10102291 -0.052754298
0.47099999 0.1002543 -0.052754298
0.47099999 0.099485688 -0.052754298
0.46900001 0.098297909 -0.052530292
0.46900001 0.097532563 -0.052530292
0.46799999 0.096560888 -0.052418284
0.46799999 0.095797174 -0.052418284
0.46599999 0.094627336 -0.052194275
0.46200001 0.090045482 -0.051746257
0.461 0.089098282 -0.051634252
0.46000001 0.086653039 -0.051522247
0.46000001 0.085902378 -0.051522247
0.45899999 0.084966607 -0.051410239
0.47400001 0.10630739 -0.053863827
0.47400001 0.10476039 -0.053863827
0.47299999 0.1037675 -0.053750187
0.47299999 0.10299563 -0.053750187
0.47299999 0.10222375 -0.053750187
0.47099999 0.10102291 -0.053522915
0.47099999 0.1002543 -0.053522915
0.47099999 0.099485688 -0.053522915
0.46900001 0.098297909 -0.053295642
0.46900001 0.097532563 -0.053295642
0.46799999 0.096560888 -0.053182006
0.46799999 0.095797174 -0.053182006
0.46599999 0.094627336 -0.05295473
0.461 0.087593704 -0.052386548
0.461 0.086841412 -0.052386548
0.46000001 0.085902378 -0.052272912
0.45899999 0.084966607 -0.052159272
0.47299999 0.10453937 -0.054522067
0.47299999 0.1037675 -0.054522067
0.47299999 0.10299563 -0.054522067
0.472 0.10200764 -0.054406799
0.47099999 0.10102291 -0.054291531
0.47099999 0.1002543 -0.054291531
0.47 0.099274471 -0.054176264
0.46900001 0.098297909 -0.054060996
0.46900001 0.097532563 -0.054060996
0.46700001 0.096354567 -0.05383046
0.46700001 0.095592484 -0.05383046
0.46599999 0.094627336 -0.053715188
0.47299999 0.10453937 -0.055293947
0.47299999 0.1037675 -0.055293947
0.47299999 0.10299563 -0.055293947
0.472 0.10200764 -0.055177048
0.47099999 0.10102291 -0.055060148
0.47099999 0.1002543 -0.055060148
0.47 0.099274471 -0.054943249
0.46900001 0.098297909 -0.054826349
0.46900001 0.097532563 -0.054826349
0.46700001 0.096354567 -0.054592546
0.46700001 0.095592484 -0.054592546
0.46599999 0.094627336 -0.054475646
0.47299999 0.10453937 -0.056065828
0.47299999 0.1037675 -0.056065828
0.47299999 0.10299563 -0.056065828
0.472 0.10200764 -0.055947296
0.47099999 0.10102291 -0.055828761
0.47099999 0.1002543 -0.055828761
0.47 0.099274471 -0.055710234
0.46900001 0.098297909 -0.055591702
0.46900001 0.097532563 -0.055591702
0.46799999 0.096560888 -0.055473167
0.46799999 0.095797174 -0.055473167
0.46599999 0.094627336 -0.055236101
0.47299999 0.10531124 -0.056837708
0.47299999 0.10453937 -0.056837708
0.47299999 0.1037675 -0.056837708
0.47 0.099274471 -0.056477215
0.46900001 0.098297909 -0.056357052
0.46900001 0.097532563 -0.056357052
0.46799999 0.096560888 -0.056236889
0.46799999 0.095797174 -0.056236889
0.46599999 0.094627336 -0.05599656
0.47400001 0.10630739 -0.057731386
0.47400001 0.10553389 -0.057731386
0.47400001 0.10476039 -0.057731386
0.47299999 0.1037675 -0.057609588
0.47 0.099274471 -0.0572442
0.46900001 0.098297909 -0.057122406
0.46900001 0.097532563 -0.057122406
0.46799999 0.096560888 -0.057000607
0.46799999 0.095797174 -0.057000607
0.46700001 0.094830401 -0.056878813
0.47400001 0.10630739 -0.058504898
0.47400001 0.10553389 -0.058504898
0.47400001 0.10476039 -0.058504898
0.47400001 0.10398688 -0.058504898
0.47 0.098507494 -0.058011185
0.47 0.097740516 -0.058011185
0.46900001 0.096767217 -0.057887759
0.46900001 0.096001871 -0.057887759
0.46799999 0.095033459 -0.057764329
0.47400001 0.10630739 -0.05927841
0.47400001 0.10476039 -0.05927841
0.47400001 0.10398688 -0.05927841
0.47 0.097740516 -0.05877817
0.46900001 0.096767217 -0.058653113
0.46900001 0.096001871 -0.058653113
0.46799999 0.095033459 -0.058528051
0.47499999 0.10653167 -0.060178611
0.47099999 0.097948477 -0.059671845
0.47 0.096973538 -0.059545156
0.46900001 0.095236525 -0.059418462
0.47499999 0.10653167 -0.060953755
0.47499999 0.10575654 -0.060953755
0.47099999 0.097948477 -0.060440462
0.47 0.096973538 -0.060312137
0.47 0.096206568 -0.060312137
0.46900001 0.095236525 -0.060183816
0.47499999 0.10653167 -0.061728898
0.47499999 0.10575654 -0.061728898
0.47600001 0.10520241 -0.061858859
0.47499999 0.10420626 -0.061728898
0.47099999 0.097948477 -0.061209075
0.47 0.096973538 -0.061079122
0.46900001 0.095236525 -0.060949169
0.47600001 0.10675595 -0.06263563
0.47600001 0.10597918 -0.06263563
0.47600001 0.10520241 -0.06263563
0.47499999 0.10420626 -0.062504046
0.472 0.098156437 -0.062109284
0.47099999 0.097179867 -0.061977692
0.47 0.095439591 -0.061846107
0.47600001 0.10675595 -0.063412406
0.47600001 0.10597918 -0.063412406
0.47600001 0.10520241 -0.063412406
0.47499999 0.10420626 -0.063279189
0.472 0.098156437 -0.062879533
0.47099999 0.097179867 -0.062746309
0.47600001 0.10675595 -0.064189188
0.47600001 0.10520241 -0.064189188
0.47499999 0.10420626 -0.064054333
0.47499999 0.10343113 -0.064054333
0.47499999 0.10265599 -0.064054333
0.47299999 0.09836439 -0.063784629
0.47099999 0.097179867 -0.063514926
0.477 0.10698023 -0.065102443
0.47600001 0.10597918 -0.064965963
0.47499999 0.10343113 -0.064829476
0.47499999 0.10265599 -0.064829476
0.47299999 0.09836439 -0.064556509
0.47099999 0.097179867 -0.064283542
0.47600001 0.10675595 -0.065742739
0.47600001 0.10597918 -0.065742739
0.47299999 0.09836439 -0.065328389
0.47099999 0.097179867 -0.065052159
0.47600001 0.10675595 -0.066519514
0.47600001 0.10597918 -0.066519514
0.47400001 0.10011936 -0.06624002
0.47299999 0.099136263 -0.06610027
0.47299999 0.09836439 -0.06610027
0.472 0.097386196 -0.065960526
0.47600001 0.10675595 -0.067296289
0.47600001 0.10597918 -0.067296289
0.47600001 0.10520241 -0.067296289
0.47499999 0.10420626 -0.067154907
0.47400001 0.10166637 -0.067013532
0.47400001 0.10089286 -0.067013532
0.47299999 0.099908136 -0.06687215
0.472 0.098926678 -0.066730767
0.472 0.098156437 -0.066730767
0.47099999 0.097179867 -0.066589393
0.47 0.095439591 -0.066448011
0.477 0.10698023 -0.068216071
0.47600001 0.10597918 -0.068073064
0.47600001 0.10520241 -0.068073064
0.47499999 0.10420626 -0.06793005
0.47299999 0.099908136 -0.06764403
0.472 0.098926678 -0.067501016
0.472 0.098156437 -0.067501016
0.47099999 0.097179867 -0.06735801
0.47 0.095439591 -0.067214996
0.47499999 0.10420626 -0.068705194
0.47299999 0.099908136 -0.06841591
0.472 0.098926678 -0.068271264
0.472 0.098156437 -0.068271264
0.47099999 0.097179867 -0.068126619
0.47600001 0.10675595 -0.069626614
0.47600001 0.10597918 -0.069626614
0.47600001 0.10520241 -0.069626614
0.47400001 0.10398688 -0.069334067
0.47400001 0.10321338 -0.069334067
0.47400001 0.10243987 -0.069334067
0.472 0.099696919 -0.069041513
0.47099999 0.098717086 -0.068895236
0.47099999 0.097948477 -0.068895236
0.47 0.096973538 -0.068748966
0.46900001 0.095236525 -0.068602696
0.47600001 0.10675595 -0.07040339
0.47499999 0.10575654 -0.070255481
0.47499999 0.1049814 -0.070255481
0.47400001 0.10398688 -0.070107579
0.47400001 0.10321338 -0.070107579
0.47299999 0.10222375 -0.06995967
0.47099999 0.097948477 -0.069663852
0.47 0.096973538 -0.069515951
0.46799999 0.095033459 -0.069220141
0.47499999 0.10575654 -0.071030624
0.47499999 0.1049814 -0.071030624
0.47400001 0.10398688 -0.070881091
0.47400001 0.10321338 -0.070881091
0.47299999 0.10222375 -0.07073155
0.47099999 0.097948477 -0.070432469
0.47 0.096973538 -0.070282936
0.46799999 0.095033459 -0.069983855
0.47499999 0.10575654 -0.071805768
0.47499999 0.1049814 -0.071805768
0.47400001 0.10398688 -0.071654603
0.47400001 0.10321338 -0.071654603
0.472 0.10200764 -0.071352258
0.47 0.097740516 -0.071049921
0.46900001 0.096767217 -0.070898749
0.46799999 0.095033459 -0.070747577
0.47400001 0.10398688 -0.072428115
0.47400001 0.10321338 -0.072428115
0.472 0.10200764 -0.072122507
0.47 0.097740516 -0.071816906
0.46900001 0.096767217 -0.071664102
0.46799999 0.095033459 -0.071511298
0.47299999 0.1037675 -0.073047191
0.47299999 0.10299563 -0.073047191
0.472 0.10200764 -0.072892755
0.46900001 0.097532563 -0.072429456
0.46799999 0.096560888 -0.07227502
0.46700001 0.094830401 -0.072120585
0.47299999 0.1037675 -0.073819071
0.47299999 0.10299563 -0.073819071
0.47099999 0.10179152 -0.073506936
0.46900001 0.097532563 -0.073194809
0.46799999 0.096560888 -0.073038742
0.46700001 0.094830401 -0.072882675
0.47299999 0.1037675 -0.074590951
0.46900001 0.097532563 -0.073960163
0.46799999 0.096560888 -0.073802464
0.46799999 0.095797174 -0.073802464
0.46700001 0.094830401 -0.073644765
0.47299999 0.1037675 -0.075362831
0.46799999 0.097324602 -0.074566178
0.46799999 0.096560888 -0.074566178
0.46799999 0.095797174 -0.074566178
0.46599999 0.094627336 -0.074247524
0.46799999 0.097324602 -0.0753299
0.46799999 0.096560888 -0.0753299
0.46599999 0.094627336 -0.075007975
0.46799999 0.097324602 -0.076093622
0.46799999 0.096560888 -0.076093622
0.46599999 0.094627336 -0.075768434
0.46799999 0.098852023 -0.076857343
0.46799999 0.098088317 -0.076857343
0.46799999 0.097324602 -0.076857343
0.46700001 0.096354567 -0.076693118
0.46599999 0.094627336 -0.076528892
0.46799999 0.098852023 -0.077621065
0.46799999 0.098088317 -0.077621065
0.46799999 0.097324602 -0.077621065
0.46700001 0.096354567 -0.077455208
0.46599999 0.094627336 -0.07728935
0.46700001 0.097116642 -0.078217298
0.46700001 0.096354567 -0.078217298
0.46599999 0.094627336 -0.078049809
0.46700001 0.097116642 -0.078979388
0.46599999 0.09614823 -0.07881026
0.465 0.094424278 -0.078641146
0.46700001 0.098640807 -0.079741478
0.46700001 0.097878724 -0.079741478
0.46700001 0.097116642 -0.079741478
0.46599999 0.09614823 -0.079570718
0.465 0.094424278 -0.079399966
0.46700001 0.098640807 -0.080503561
0.46700001 0.097878724 -0.080503561
0.46599999 0.096908681 -0.080331177
0.46599999 0.09614823 -0.080331177
0.465 0.094424278 -0.080158792
0.46700001 0.098640807 -0.081265651
0.46700001 0.097878724 -0.081265651
0.465 0.094424278 -0.080917619
0.46700001 0.098640807 -0.082027741
0.46700001 0.097878724 -0.082027741
0.465 0.094424278 -0.081676446
0.46599999 0.098429583 -0.083373003
0.46599999 0.097669132 -0.083373003
0.465 0.096700728 -0.083194092
0.465 0.095941909 -0.083194092
0.46599999 0.098429583 -0.084133461
0.46599999 0.097669132 -0.084133461
0.465 0.096700728 -0.083952919
0.465 0.095941909 -0.083952919
0.46599999 0.098429583 -0.08489392
0.46599999 0.097669132 -0.08489392
0.465 0.096700728 -0.084711745
0.465 0.095941909 -0.084711745
0.465 0.096700728 -0.085470572
0.465 0.095941909 -0.085470572
0.465 0.096700728 -0.086229391
0.46399999 0.09573558 -0.086043954
0.465 0.096700728 -0.086988218
0.46399999 0.09573558 -0.086801142
0.465 0.096700728 -0.087747045
0.465 0.095941909 -0.087747045
0.46599999 0.098429583 -0.088696204
0.46599999 0.097669132 -0.088696204
0.465 0.096700728 -0.088505872
0.465 0.095941909 -0.088505872
0.46599999 0.098429583 -0.089456655
0.46599999 0.097669132 -0.089456655
0.465 0.096700728 -0.089264691
0.465 0.095941909 -0.089264691
0.46700001 0.098640807 -0.090410717
0.46700001 0.097878724 -0.090410717
0.46599999 0.096908681 -0.090217113
0.465 0.095941909 -0.090023518
0.46700001 0.098640807 -0.091172807
0.46700001 0.097878724 -0.091172807
0.46599999 0.096908681 -0.090977572
0.465 0.095941909 -0.090782344
0.46700001 0.098640807 -0.091934897
0.46700001 0.097878724 -0.091934897
0.46599999 0.096908681 -0.09173803
0.465 0.095941909 -0.091541171
0.46599999 0.098429583 -0.092498489
0.46599999 0.097669132 -0.092498489
0.46599999 0.096908681 -0.092498489
0.465 0.095941909 -0.09229999
0.46599999 0.098429583 -0.09325894
0.46599999 0.097669132 -0.09325894
0.46599999 0.096908681 -0.09325894
0.465 0.095941909 -0.093058817
0.46799999 0.098852023 -0.094422914
0.46599999 0.096908681 -0.094019398
0.465 0.095941909 -0.093817644
0.465 0.095183089 -0.093817644
0.465 0.094424278 -0.093817644
0.46700001 0.098640807 -0.09498325
0.46700001 0.097878724 -0.09498325
0.46599999 0.096908681 -0.094779857
0.465 0.095941909 -0.094576471
0.46599999 0.098429583 -0.095540315
0.46599999 0.097669132 -0.095540315
0.46599999 0.096908681 -0.095540315
0.465 0.095941909 -0.09533529
0.46599999 0.098429583 -0.096300773
0.46599999 0.097669132 -0.096300773
0.46599999 0.096908681 -0.096300773
0.465 0.095941909 -0.096094117
0.46599999 0.098429583 -0.097061224
0.46599999 0.097669132 -0.097061224
0.46599999 0.096908681 -0.097061224
0.465 0.095941909 -0.096852943
0.46700001 0.098640807 -0.098031603
0.46700001 0.097878724 -0.098031603
0.46599999 0.096908681 -0.097821683
0.465 0.095941909 -0.09761177
0.46700001 0.098640807 -0.098793693
0.46700001 0.097878724 -0.098793693
0.46599999 0.096908681 -0.098582141
0.46399999 0.09573558 -0.098159038
0.465 0.096700728 -0.099129416
0.46399999 0.09573558 -0.098916233
0.465 0.096700728 -0.099888243
0.465 0.095941909 -0.099888243
0.465 0.096700728 -0.10064707
0.46399999 0.09573558 -0.10043062
0.46399999 0.09573558 -0.10118781
0.465 0.096700728 -0.10292354
0.46399999 0.09573558 -0.1027022
0.465 0.096700728 -0.10368237
0.46399999 0.09573558 -0.10345939
0.465 0.096700728 -0.1044412
0.46399999 0.09573558 -0.10421658
0.465 0.098218359 -0.10520002
0.465 0.097459547 -0.10520002
0.465 0.096700728 -0.10520002
0.46399999 0.09573558 -0.10497378
0.465 0.098218359 -0.10595884
0.465 0.097459547 -0.10595884
0.465 0.096700728 -0.10595884
0.465 0.095941909 -0.10595884
0.465 0.098218359 -0.10671767
0.465 0.097459547 -0.10671767
0.465 0.096700728 -0.10671767
0.465 0.095941909 -0.10671767
0.465 0.096700728 -0.1074765
0.465 0.095941909 -0.1074765
0.465 0.095941909 -0.10823531
0.465 0.096700728 -0.10899414
0.465 0.095941909 -0.10899414
0.465 0.096700728 -0.10975297
0.465 0.095941909 -0.10975297
0.465 0.096700728 -0.11051179
0.465 0.095941909 -0.11051179
0.465 0.095941909 -0.11127061
0.465 0.095941909 -0.11202944
0.46599999 0.098429583 -0.11303082
0.46599999 0.097669132 -0.11303082
0.465 0.095941909 -0.11278827
0.46599999 0.098429583 -0.11379128
0.46599999 0.097669132 -0.11379128
0.465 0.095941909 -0.11354709
0.46599999 0.098429583 -0.11455173
0.46599999 0.097669132 -0.11455173
0.465 0.095941909 -0.11430592
0.46599999 0.098429583 -0.11531219
0.46599999 0.097669132 -0.11531219
0.465 0.096700728 -0.11506474
0.465 0.095941909 -0.11506474
0.46700001 0.098640807 -0.11632174
0.46700001 0.097878724 -0.11632174
0.46599999 0.09614823 -0.11607265
0.47299999 0.10145188 -0.1185881
0.46900001 0.099828601 -0.11758526
0.46700001 0.098640807 -0.11708383
0.46700001 0.097878724 -0.11708383
0.46599999 0.09614823 -0.11683311
0.46700001 0.098640807 -0.11784591
0.46700001 0.097878724 -0.11784591
0.46599999 0.09614823 -0.11759356
0.46700001 0.098640807 -0.118608
0.46700001 0.097878724 -0.118608
0.46700001 0.098640807 -0.11937009
0.46700001 0.097878724 -0.11937009
0.46700001 0.098640807 -0.12013218
0.46700001 0.097878724 -0.12013218
0.46799999 0.098852023 -0.12115314
0.46799999 0.098088317 -0.12115314
