# .PCD v0.7 - Point Cloud Data file format
VERSION 0.7
FIELDS x y z
SIZE 4 4 4
TYPE F F F
COUNT 1 1 1
WIDTH 373
HEIGHT 1
VIEWPOINT 0 0 0 1 0 0 0
POINTS 373
DATA ascii
1.1109999 0.0026036457 0.24904478
1.1109999 0.0026036457 0.24723175
1.1109999 0.047928702 0.23816666
1.109 0.042413209 0.23592816
1.107 0.040530246 0.23550269
1.105 0.036850598 0.23507722
1.107 0.038723771 0.23369619
1.105 0.036850598 0.23327398
1.105 0.035047386 0.23327398
1.105 0.033244178 0.23327398
1.103 0.029584112 0.23105182
1.103 0.027784163 0.23105182
1.103 0.025984216 0.23105182
1.101 0.020547047 0.23063284
1.103 0.031384058 0.22925185
1.103 0.029584112 0.22925185
1.103 0.031384058 0.22745188
1.103 0.029584112 0.22745188
1.103 0.027784163 0.22745188
1.103 0.025984216 0.22745188
1.103 0.024184268 0.22745188
1.101 0.022343731 0.22703944
1.103 0.027784163 0.22565192
1.103 0.025984216 0.22565192
1.101 0.022343731 0.22524273
1.103 0.029584112 0.22385195
1.103 0.027784163 0.22385195
1.103 0.025984216 0.22385195
1.101 0.022343731 0.22344603
1.103 0.027784163 0.22205198
1.103 0.025984216 0.22205198
1.101 0.022343731 0.22164933
1.103 0.022384321 0.21845205
1.135 0.080450915 0.19885913
1.146 0.084970847 0.18395518
1.146 0.084970847 0.18208504
1.168 0.090414084 0.17223829
1.115 0.020808319 0.14076856
1.113 0.01895473 0.14051607
1.1109999 0.017107664 0.14026356
1.1109999 0.015294662 0.14026356
1.119 0.02453508 0.13944748
1.115 0.022627849 0.13894902
1.115 0.020808319 0.13894902
1.113 0.01895473 0.13869978
1.1109999 0.017107664 0.13845053
1.1109999 0.015294662 0.13845053
1.119 0.028187195 0.1376214
1.119 0.026361138 0.1376214
1.115 0.020808319 0.13712947
1.113 0.01895473 0.1368835
1.1109999 0.017107664 0.13663751
1.1109999 0.015294662 0.13663751
1.109 0.01345739 0.13639155
1.109 0.011647652 0.13639155
1.109 0.0098379133 0.13639155
1.107 0.0080136964 0.13614558
1.119 0.042795654 0.13579533
1.119 0.040969595 0.13579533
1.119 0.03914354 0.13579533
1.101 -0.0010131567 0.13361095
1.101 -0.0028098405 0.13361095
1.1440001 0.069887727 0.13696232
1.1390001 0.06772358 0.13636371
1.133 -0.019531639 0.091271251
1.142 -0.027141148 0.090132654
1.1440001 -0.029055538 0.090290509
1.192 -0.20728636 -0.0051264302
1.192 -0.20923154 -0.0051264302
1.186 -0.21011375 -0.0051006256
1.186 -0.21204914 -0.0051006256
1.1900001 -0.2108224 -0.0070597678
1.1900001 -0.21276432 -0.0070597678
1.1950001 -0.2117082 -0.0090395296
1.1950001 -0.21365829 -0.0090395296
1.1950001 -0.2117082 -0.010989628
1.1950001 -0.21365829 -0.010989628
1.199 -0.21241684 -0.012983039
1.199 -0.21437345 -0.012983039
1.199 -0.21633007 -0.014939665
1.1950001 -0.21755844 -0.014889825
1.199 -0.0030599444 -0.042332429
1.199 -0.0030599444 -0.044289056
1.199 -0.2261131 -0.056028813
1.186 -0.043670006 -0.10187121
1.1900001 -0.045759212 -0.10221479
0.55800003 0.02953569 -0.078889348
0.72000003 -0.018286701 -0.10766748
0.56099999 0.070890926 -0.086637363
0.56 0.069850713 -0.086482935
0.55900002 0.066077128 -0.093626276
0.37400001 -0.18404977 -0.062640838
0.375 -0.18209408 -0.063420281
0.384 -0.17957135 -0.06682229
0.389 -0.17810073 -0.068327174
0.38699999 -0.17781658 -0.067975879
0.391 -0.17646419 -0.069316536
0.38999999 -0.17664929 -0.069139257
0.38999999 -0.17728572 -0.069139257
0.39300001 -0.17608418 -0.070312425
0.39899999 -0.17486578 -0.072037019
0.39700001 -0.17463712 -0.071675934
0.39700001 -0.17528498 -0.071675934
0.57200003 0.080681786 -0.10607143
0.57200003 0.082548641 -0.10700487
0.57200003 0.081615217 -0.1079383
0.57200003 0.080681786 -0.1079383
0.57200003 0.082548641 -0.10887174
0.57200003 0.081615217 -0.10887174
0.57200003 0.080681786 -0.10887174
0.57200003 0.082548641 -0.10980517
0.39700001 -0.15714516 -0.076210931
0.396 -0.15093336 -0.077311411
0.398 -0.14455134 -0.079650342
0.421 0.13907669 -0.085627295
0.42199999 0.13940704 -0.086519338
0.42199999 0.13940704 -0.087207995
0.42199999 0.13940704 -0.087896645
0.40799999 -0.13486727 -0.084980644
0.42199999 0.13940704 -0.088585302
0.42300001 0.14111796 -0.090866081
0.42300001 0.14180824 -0.091556363
0.551 -0.19742259 -0.12285803
0.55000001 -0.19706431 -0.12353259
0.55000001 -0.19796184 -0.12353259
0.551 -0.19922091 -0.1237572
0.54900002 -0.20835264 -0.12689161
0.54900002 -0.20924853 -0.12689161
0.54699999 -0.20759359 -0.12732197
0.546 -0.20810509 -0.12708922
0.54100001 -0.20884788 -0.12680824
0.54100001 -0.20973071 -0.12680824
0.53799999 -0.21120152 -0.12610504
0.53100002 -0.23444918 -0.12879694
0.53299999 -0.236202 -0.12928203
0.53100002 -0.23358266 -0.12966345
0.53100002 -0.23444918 -0.12966345
0.53299999 -0.236202 -0.13015182
0.53399998 -0.23751657 -0.13039601
0.52899998 -0.23270287 -0.13003834
0.52899998 -0.23356612 -0.13003834
0.52999997 -0.23487252 -0.13028416
0.52999997 -0.23573741 -0.13028416
0.52499998 -0.23094329 -0.1299118
0.52499998 -0.23180002 -0.1299118
0.52700001 -0.23354307 -0.13040671
0.52700001 -0.23440306 -0.13040671
0.52200001 -0.22621629 -0.1300213
0.52700001 -0.23440306 -0.13126671
0.51999998 -0.22874384 -0.1303717
0.52100003 -0.23003395 -0.13062243
0.52100003 -0.23088415 -0.13062243
0.56800002 -0.18682949 -0.14333293
0.56199998 -0.18852437 -0.14273596
0.51800001 -0.23293589 -0.13156091
0.51899999 -0.23423252 -0.13181488
0.51899999 -0.23507945 -0.13181488
0.54000002 -0.02869555 -0.1459606
0.53899997 -0.029521983 -0.14569029
0.53899997 -0.03040156 -0.14569029
0.53799999 -0.0312231 -0.14542
0.53799999 -0.032101043 -0.14542
0.537 -0.03291769 -0.14514971
0.53500003 -0.033668138 -0.14460911
0.53500003 -0.034541186 -0.14460911
0.43099999 -0.013056624 -0.12001488
0.426 -0.01360033 -0.1186226
0.426 -0.014295504 -0.1186226
0.42500001 -0.012874862 -0.1190377
0.421 -0.013440702 -0.11791734
0.42500001 -0.012181319 -0.11973125
0.39500001 -0.021634851 -0.11192422
0.39500001 -0.022279438 -0.11192422
0.39399999 -0.022865988 -0.11164086
0.42300001 -0.010053158 -0.12054837
0.42300001 -0.010743437 -0.12054837
0.396 -0.019750966 -0.1128538
0.40200001 -0.017426183 -0.11521972
0.40200001 -0.018082194 -0.11521972
0.42300001 -0.0086725997 -0.12192895
0.421 -0.0093186097 -0.12135245
0.412 -0.013825699 -0.11875822
0.40900001 -0.01439246 -0.11789347
0.40900001 -0.015059893 -0.11789347
0.40599999 -0.015611965 -0.11702872
0.40599999 -0.016274503 -0.11702872
0.40400001 -0.016853608 -0.11645223
0.41800001 -0.0072058472 -0.12116984
0.42300001 -0.0079823211 -0.12261923
0.42300001 -0.0086725997 -0.12261923
0.421 -0.0093186097 -0.12203947
0.41999999 -0.0099818585 -0.12174959
0.41999999 -0.010667242 -0.12174959
0.41800001 -0.011298566 -0.12116984
0.41800001 -0.011980685 -0.12116984
0.41600001 -0.012602217 -0.12059008
0.412 -0.01315337 -0.11943055
0.412 -0.013825699 -0.11943055
0.40900001 -0.01439246 -0.11856091
0.40900001 -0.015059893 -0.11856091
0.40599999 -0.015611965 -0.11769127
0.40599999 -0.016274503 -0.11769127
0.40400001 -0.016853608 -0.11711152
0.41499999 -0.0057996823 -0.12097742
0.41800001 -0.0065237274 -0.12185196
0.41800001 -0.0072058472 -0.12185196
0.41299999 -0.0077936128 -0.12039439
0.41299999 -0.0084675737 -0.12039439
0.41299999 -0.0091415336 -0.12039439
0.41600001 -0.0098867938 -0.12126894
0.41600001 -0.01056565 -0.12126894
0.414 -0.011190445 -0.12068591
0.414 -0.011866038 -0.12068591
0.414 -0.012541629 -0.12068591
0.41100001 -0.013121446 -0.11981138
0.41100001 -0.013792142 -0.11981138
0.40799999 -0.01435727 -0.11893684
0.39300001 -0.019601338 -0.11456417
0.39300001 -0.020242661 -0.11456417
0.39300001 -0.020883983 -0.11456417
0.39199999 -0.021470534 -0.11427265
0.36300001 -0.051277611 -0.10581881
0.36500001 -0.052155763 -0.10640183
0.41299999 -0.0077936128 -0.12106836
0.41299999 -0.0084675737 -0.12106836
0.41299999 -0.0091415336 -0.12106836
0.414 -0.009839261 -0.12136151
0.414 -0.010514853 -0.12136151
0.41299999 -0.011163414 -0.12106836
0.41299999 -0.011837375 -0.12106836
0.412 -0.012481042 -0.12077522
0.41100001 -0.013121446 -0.12048208
0.39199999 -0.01955146 -0.11491235
0.39199999 -0.020191152 -0.11491235
0.39199999 -0.020830844 -0.11491235
0.36199999 -0.051136348 -0.10611803
0.36300001 -0.051869977 -0.10641118
0.36300001 -0.052462347 -0.10641118
0.36399999 -0.053200867 -0.10670432
0.36399999 -0.053794865 -0.10670432
0.36399999 -0.054388866 -0.10670432
0.41299999 -0.0077936128 -0.12174233
0.41299999 -0.0084675737 -0.12174233
0.41299999 -0.0091415336 -0.12174233
0.414 -0.009839261 -0.12203711
0.414 -0.010514853 -0.12203711
0.41299999 -0.011163414 -0.12174233
0.41299999 -0.011837375 -0.12174233
0.39500001 -0.018411916 -0.11643638
0.39500001 -0.019056503 -0.11643638
0.39199999 -0.01955146 -0.11555204
0.39199999 -0.020191152 -0.11555204
0.39199999 -0.020830844 -0.11555204
0.36399999 -0.053794865 -0.10729832
0.36399999 -0.054388866 -0.10729832
0.36500001 -0.05513392 -0.1075931
0.366 -0.05588223 -0.10788788
0.366 -0.056479495 -0.10788788
0.368 -0.057388652 -0.10847743
0.41299999 -0.0077936128 -0.1224163
0.403 -0.016154248 -0.11945222
0.39500001 -0.018411916 -0.11708096
0.39500001 -0.019056503 -0.11708096
0.39199999 -0.01955146 -0.11619174
0.39199999 -0.020191152 -0.11619174
0.39199999 -0.020830844 -0.11619174
0.36500001 -0.056325179 -0.10818874
0.366 -0.057076756 -0.10848515
0.403 -0.016154248 -0.12010987
0.40099999 -0.016728457 -0.11951379
0.40099999 -0.017382834 -0.11951379
0.39700001 -0.017857291 -0.11832164
0.39700001 -0.018505141 -0.11832164
0.368 -0.021357065 -0.10967849
0.34900001 -0.016837265 -0.1114196
0.34900001 -0.017406786 -0.1114196
0.34999999 -0.018027814 -0.11173885
0.34999999 -0.018598966 -0.11173885
0.34999999 -0.01917012 -0.11173885
0.35100001 -0.019797677 -0.1120581
0.34900001 -0.017406786 -0.11198912
0.34999999 -0.018027814 -0.11231
0.34999999 -0.018598966 -0.11231
0.34999999 -0.01917012 -0.11231
0.35100001 -0.019797677 -0.1126309
0.35100001 -0.020370463 -0.1126309
0.34900001 -0.017406786 -0.11255865
0.34900001 -0.017976306 -0.11255865
0.34900001 -0.018545827 -0.11255865
0.34900001 -0.019115349 -0.11255865
0.35600001 -0.064231448 -0.11481627
0.35600001 -0.064812392 -0.11481627
0.35299999 -0.061385971 -0.11442477
0.354 -0.062137552 -0.11474892
0.35499999 -0.064051017 -0.11507307
0.35499999 -0.06463033 -0.11507307
0.35299999 -0.061385971 -0.11500082
0.354 -0.062137552 -0.11532661
0.35499999 -0.064051017 -0.11565238
0.35499999 -0.06463033 -0.11565238
0.366 -0.07798095 -0.11923598
0.366 -0.078578211 -0.11923598
0.35299999 -0.061385971 -0.11557687
0.35299999 -0.06196202 -0.11557687
0.35499999 -0.064051017 -0.1162317
0.35499999 -0.06463033 -0.1162317
0.366 -0.076786429 -0.11983325
0.366 -0.07738369 -0.11983325
0.366 -0.07798095 -0.11983325
0.366 -0.078578211 -0.11983325
0.38600001 -0.091690712 -0.12638152
0.352 -0.061212074 -0.11582389
0.35299999 -0.06196202 -0.11615293
0.354 -0.063870594 -0.11648198
0.354 -0.064448275 -0.11648198
0.366 -0.076786429 -0.12043052
0.366 -0.07738369 -0.12043052
0.366 -0.07798095 -0.12043052
0.366 -0.078578211 -0.12043052
0.38 -0.089025244 -0.12503715
0.352 -0.061212074 -0.11639831
0.35299999 -0.06196202 -0.11672898
0.35299999 -0.063114114 -0.11672898
0.354 -0.063870594 -0.11705966
0.354 -0.064448275 -0.11705966
0.36500001 -0.075385369 -0.12069712
0.366 -0.07618916 -0.12102779
0.366 -0.076786429 -0.12102779
0.366 -0.07738369 -0.12102779
0.366 -0.07798095 -0.12102779
0.366 -0.078578211 -0.12102779
0.38 -0.089025244 -0.12565726
0.352 -0.061212074 -0.11697273
0.352 -0.061786491 -0.11697273
0.352 -0.062360909 -0.11697273
0.35299999 -0.063114114 -0.11730504
0.354 -0.063870594 -0.11763735
0.354 -0.064448275 -0.11763735
0.354 -0.065025955 -0.11763735
0.35499999 -0.065788954 -0.11796965
0.36500001 -0.074194103 -0.12129276
0.36500001 -0.07478974 -0.12129276
0.36500001 -0.075385369 -0.12129276
0.366 -0.07618916 -0.12162506
0.366 -0.076786429 -0.12162506
0.366 -0.07738369 -0.12162506
0.366 -0.07798095 -0.12162506
0.366 -0.078578211 -0.12162506
0.352 -0.061212074 -0.11754715
0.352 -0.061786491 -0.11754715
0.352 -0.062360909 -0.11754715
0.35299999 -0.063114114 -0.11788109
0.354 -0.063870594 -0.11821504
0.354 -0.064448275 -0.11821504
0.354 -0.065025955 -0.11821504
0.35499999 -0.065788954 -0.11854897
0.36500001 -0.073002845 -0.12188839
0.36500001 -0.073598474 -0.12188839
0.36500001 -0.074194103 -0.12188839
0.366 -0.074994639 -0.12222233
0.366 -0.075591899 -0.12222233
0.366 -0.07618916 -0.12222233
0.366 -0.076786429 -0.12222233
0.352 -0.061786491 -0.11812158
0.352 -0.062360909 -0.11812158
0.35299999 -0.063114114 -0.11845715
0.34799999 0.016716439 -0.11734718
0.34799999 0.01614855 -0.11734718
0.34799999 0.017284328 -0.11791507
0.34799999 0.016716439 -0.11791507
0.34799999 0.01614855 -0.11791507
0.37599999 0.037696045 -0.13599272
0.37599999 0.037082464 -0.13599272
