# .PCD v0.7 - Point Cloud Data file format
VERSION 0.7
FIELDS x y z rgb
SIZE 4 4 4 4
TYPE F F F U
COUNT 1 1 1 1
WIDTH 120
HEIGHT 1
VIEWPOINT 0 0 0 1 0 0 0
POINTS 120
DATA ascii
0.67018116 -0.0068426877 0.45810935 4287791210
0.6702947 0.032305766 0.45725244 4287853380
0.66213357 0.054815397 0.45559716 4287265375
0.65853351 0.065586902 0.45452568 4287199584
0.66028035 0.062944978 0.45698664 4287070066
0.65698165 0.07459756 0.45448387 4287266927
0.66046685 0.076244242 0.45603216 4286804047
0.65711546 0.085014686 0.45441845 4287332204
0.65822738 0.095149487 0.45438433 4287199324
0.65850264 0.10518489 0.45485312 4287199839
0.65833038 0.11445256 0.4546718 4287198548
0.6608972 0.11603396 0.45476511 4287789651
0.66611725 -0.11510674 0.46516398 4286677119
0.66627526 -0.10523548 0.46502841 4286874498
0.66625869 -0.094830126 0.46496737 4286940292
0.66623604 -0.085016005 0.4649699 4286940291
0.66675854 -0.075125039 0.46514666 4286808963
0.6674664 -0.064987957 0.46543443 4286874242
0.66687435 -0.054861814 0.46498922 4286874499
0.665595 -0.04514141 0.46494588 4286808705
0.66529202 -0.035067033 0.46526283 4286874240
0.66518575 -0.025127845 0.46535805 4286743169
0.66512179 -0.014963422 0.4648698 4286874241
0.6703344 -0.0026405007 0.46398136 4287400584
0.67056853 0.0056461557 0.46388066 4287269253
0.67080921 0.014954612 0.46478289 4287203205
0.6706847 0.024588142 0.46452051 4287203458
0.66551763 0.035385106 0.46477592 4286874496
0.66457796 0.044930868 0.46504474 4286808702
0.65848112 0.12465673 0.46537268 4286872684
0.66628784 -0.12501936 0.47492084 4286611066
0.65840763 0.12475703 0.47507927 4286807151
0.66701055 -0.12549247 0.48479858 4286479737
0.67062855 -0.12261004 0.48876014 4286742653
0.65879154 0.12513465 0.48494318 4287135346
0.66690511 -0.1252754 0.49493903 4286413686
0.67032957 -0.12297291 0.49175373 4286676346
0.65929669 0.12319396 0.49155322 4287332468
0.66668242 -0.12517641 0.50529754 4286347377
0.66300029 0.12514538 0.50513887 4287590722
0.66619527 -0.12510917 0.51506186 4286347118
0.65912884 0.12593181 0.51706541 4287004271
0.66639298 -0.12514417 0.52472186 4286347376
0.65784734 0.1251242 0.52446729 4286938738
0.66735274 -0.12506297 0.53492427 4286281583
0.65706342 0.12523142 0.53422779 4287003756
0.67126155 -0.13547015 0.54579526 4286608481
0.66833836 -0.12482884 0.5442813 4286281066
0.65714335 0.12488981 0.5449695 4287069292
0.67296112 -0.13511713 0.55522257 4286608995
0.65849602 0.12586106 0.55539387 4287068774
0.67325968 -0.12558596 0.56560189 4286347376
0.6745401 -0.13434651 0.57469821 4286608479
0.66371626 0.12489221 0.57484853 4287655996
0.67385268 -0.13487193 0.58500004 4286674531
0.66366816 0.12468983 0.58470011 4287525187
0.67224163 -0.13514487 0.59491765 4286672983
0.66352117 0.12484685 0.59483021 4287525188
0.66968811 -0.12463637 0.60436147 4286150000
0.67111701 -0.12508115 0.60502321 4286346861
0.65955228 0.12328494 0.60859752 4286676341
0.6697278 -0.13344286 0.61669618 4286477156
0.65846622 0.12415954 0.61587346 4286741618
0.66946995 -0.13367607 0.62415755 4286739554
0.65593493 0.12477177 0.62455577 4286806893
0.66945809 -0.13259549 0.63504654 4286610033
0.65531892 0.12503211 0.63448542 4286740326
0.66957349 -0.12409101 0.64274132 4286610296
0.67295706 -0.12520051 0.64489526 4286412137
0.65611506 0.12509565 0.64339697 4286609255
0.67433268 -0.12533975 0.65523034 4286411879
0.65871716 0.12542643 0.65384048 4286674794
0.67342317 -0.12475865 0.66517228 4286148705
0.65979362 0.11692893 0.66236883 4286479222
0.66508895 0.11478163 0.66494691 4286873464
0.67145532 -0.12441972 0.67433989 4286412656
0.65986431 0.11538398 0.67879903 4286544502
0.66484135 0.11528587 0.67486489 4286873464
0.67143303 -0.12480229 0.684852 4286478709
0.65962666 0.12632158 0.68561983 4286739556
0.67132545 -0.12470785 0.69392842 4286412915
0.65945923 0.12571502 0.69527662 4286871145
0.67270195 -0.12499984 0.70460016 4286543988
0.65951914 0.12013283 0.70616645 4286610551
0.67381209 -0.12545317 0.71420097 4286478709
0.66363364 0.11584721 0.71473545 4287135865
0.65981609 0.12020633 0.71368247 4286610808
0.67596912 -0.12486215 0.72502923 4286543988
0.66444445 0.1153438 0.72524428 4287004278
0.6753552 -0.12526043 0.73498213 4286411364
0.67160672 -0.034842797 0.73583126 4286215276
0.66545272 0.015052347 0.73565793 4286609257
0.66548413 0.025013451 0.73473638 4286543467
0.66595489 0.035166625 0.73502338 4286674796
0.66642714 0.04425896 0.73449433 4286609261
0.67056543 0.047108825 0.73680836 4286280811
0.67065924 0.074851587 0.73883325 4286346605
0.66666883 0.084766693 0.73564684 4286609519
0.66566044 0.09493202 0.73543501 4286740848
0.66512161 0.10554923 0.73544747 4286871919
0.67527807 -0.11512246 0.74516702 4286346349
0.68035913 -0.11176849 0.7474584 4286675057
0.67533368 -0.10586535 0.74570179 4286346348
0.68044603 -0.10256869 0.74429405 4286675314
0.67497432 -0.083282158 0.74645716 4286280040
0.67438704 -0.074908718 0.74549001 4286214761
0.67318267 -0.065205753 0.74524552 4286280037
0.66918504 -0.053883016 0.74263883 4286542693
0.6687429 -0.044918031 0.74304581 4286673507
0.66962367 -0.027225096 0.74397153 4286738781
0.67303061 -0.024887662 0.7452668 4286411107
0.66979212 -0.013892735 0.74375409 4286739555
0.67318928 -0.015199595 0.74549973 4286411621
0.67406893 -0.0051278607 0.74524659 4286280296
0.67184889 0.0049800458 0.74572253 4286280554
0.67065477 0.010515243 0.74701786 4286279520
0.67194307 0.054655705 0.74545091 4286411109
0.67225945 0.064431898 0.74569845 4286345832
0.68108273 -0.095154248 0.75416952 4286607456
0.68106568 -0.088098966 0.75312269 4286542180
