# .PCD v0.7 - Point Cloud Data file format
VERSION 0.7
FIELDS x y z
SIZE 4 4 4
TYPE F F F
COUNT 1 1 1
WIDTH 1578
HEIGHT 1
VIEWPOINT 0 0 0 1 0 0 0
POINTS 1578
DATA ascii
1.054 -0.48785529 -0.11792926
1.054 -0.4895753 -0.11792926
1.054 -0.49129528 -0.11792926
1.054 -0.49301529 -0.11792926
1.054 -0.4947353 -0.11792926
1.054 -0.49645531 -0.11792926
1.0549999 -0.49864793 -0.11804114
1.0549999 -0.50036955 -0.11804114
1.052 -0.4834961 -0.1194222
1.052 -0.48521283 -0.1194222
1.054 -0.48785529 -0.11964924
1.054 -0.4895753 -0.11964924
1.054 -0.49129528 -0.11964924
1.054 -0.49301529 -0.11964924
1.054 -0.4947353 -0.11964924
1.054 -0.49645531 -0.11964924
1.0549999 -0.49864793 -0.11976276
1.0549999 -0.50036955 -0.11976276
1.0549999 -0.48487484 -0.12148438
1.0549999 -0.48659647 -0.12148438
1.057 -0.48924387 -0.12171469
1.057 -0.49096876 -0.12171469
1.057 -0.49269366 -0.12171469
1.057 -0.49441856 -0.12171469
1.057 -0.49614346 -0.12171469
1.059 -0.49881041 -0.12194499
1.061 -0.50148386 -0.12217528
1.059 -0.48325694 -0.12367313
1.061 -0.48763242 -0.12390669
1.061 -0.48936388 -0.12390669
1.061 -0.4910953 -0.12390669
1.063 -0.4937557 -0.12414026
1.063 -0.49549037 -0.12414026
1.063 -0.49722508 -0.12414026
1.0650001 -0.49989858 -0.12437384
1.0650001 -0.50163656 -0.12437384
1.059 -0.48325694 -0.12540127
1.061 -0.48763242 -0.12563811
1.061 -0.48936388 -0.12563811
1.061 -0.4910953 -0.12563811
1.063 -0.4937557 -0.12587494
1.063 -0.49549037 -0.12587494
1.063 -0.49722508 -0.12587494
1.0650001 -0.49989858 -0.12611178
1.0650001 -0.50163656 -0.12611178
1.0650001 -0.48599494 -0.12784971
1.0650001 -0.48947087 -0.12784971
1.0650001 -0.49120882 -0.12784971
1.066 -0.4934096 -0.12796976
1.066 -0.4951492 -0.12796976
1.066 -0.49688876 -0.12796976
1.068 -0.49956384 -0.12820984
1.068 -0.50130671 -0.12820984
1.068 -0.50304955 -0.12820984
1.0650001 -0.48599494 -0.12958765
1.0650001 -0.48773289 -0.12958765
1.0650001 -0.48947087 -0.12958765
1.0650001 -0.49120882 -0.12958765
1.066 -0.4934096 -0.12970932
1.066 -0.4951492 -0.12970932
1.066 -0.49688876 -0.12970932
1.068 -0.49956384 -0.12995267
1.068 -0.50130671 -0.12995267
1.068 -0.50304955 -0.12995267
1.068 -0.4873639 -0.13169551
1.068 -0.48910674 -0.13169551
1.068 -0.49084961 -0.13169551
1.068 -0.49259245 -0.13169551
1.0700001 -0.49526107 -0.13194214
1.072 -0.49793616 -0.13218875
1.072 -0.49968553 -0.13218875
1.072 -0.50143492 -0.13218875
1.074 -0.4901019 -0.134188
1.074 -0.49185455 -0.134188
1.074 -0.49360719 -0.134188
1.074 -0.49535984 -0.134188
1.076 -0.4980382 -0.13443789
1.076 -0.4997941 -0.13443789
1.074 -0.5006178 -0.134188
1.074 -0.50237042 -0.134188
1.072 -0.4856905 -0.13568749
1.074 -0.4901019 -0.13594063
1.074 -0.49185455 -0.13594063
1.074 -0.49360719 -0.13594063
1.074 -0.49535984 -0.13594063
1.076 -0.4980382 -0.13619377
1.076 -0.4997941 -0.13619377
1.074 -0.5006178 -0.13594063
1.074 -0.50237042 -0.13594063
1.0779999 -0.48489055 -0.13820606
1.0779999 -0.48664972 -0.13820606
1.0779999 -0.48840889 -0.13820606
1.0779999 -0.49016806 -0.13820606
1.0779999 -0.49192724 -0.13820606
1.0779999 -0.49368641 -0.13820606
1.079 -0.49590519 -0.13833427
1.079 -0.497666 -0.13833427
1.081 -0.5003525 -0.13859069
1.081 -0.50211656 -0.13859069
1.079 -0.5029484 -0.13833427
1.0779999 -0.50424141 -0.13820606
1.0700001 -0.46732324 -0.13892654
1.072 -0.46994609 -0.1391862
1.072 -0.47169548 -0.1391862
1.074 -0.47432813 -0.13944587
1.0779999 -0.47785386 -0.13996522
1.0779999 -0.47961304 -0.13996522
1.079 -0.48181877 -0.14009507
1.079 -0.48357958 -0.14009507
1.081 -0.48623997 -0.14035474
1.081 -0.48800403 -0.14035474
1.079 -0.48886198 -0.14009507
1.079 -0.49062279 -0.14009507
1.0829999 -0.4942089 -0.14061441
1.0829999 -0.49597621 -0.14061441
1.0829999 -0.49774355 -0.14061441
1.0829999 -0.49951088 -0.14061441
1.085 -0.502204 -0.1408741
1.085 -0.50397456 -0.1408741
1.0829999 -0.5048129 -0.14061441
1.081 -0.50564468 -0.14035474
1.059 -0.44869363 -0.13922645
1.061 -0.45127246 -0.1394894
1.061 -0.45300388 -0.1394894
1.0650001 -0.45644969 -0.14001529
1.0650001 -0.45818767 -0.14001529
1.068 -0.46122113 -0.14040968
1.068 -0.462964 -0.14040968
1.068 -0.46470684 -0.14040968
1.0700001 -0.46732324 -0.14067262
1.072 -0.46994609 -0.14093557
1.072 -0.47169548 -0.14093557
1.074 -0.47432813 -0.1411985
1.0779999 -0.47785386 -0.14172438
1.0779999 -0.47961304 -0.14172438
1.079 -0.48181877 -0.14185585
1.079 -0.48357958 -0.14185585
1.081 -0.48623997 -0.14211878
1.081 -0.48800403 -0.14211878
1.079 -0.48886198 -0.14185585
1.079 -0.49062279 -0.14185585
1.0829999 -0.4942089 -0.14238173
1.0829999 -0.49597621 -0.14238173
1.0829999 -0.49774355 -0.14238173
1.0829999 -0.49951088 -0.14238173
1.085 -0.502204 -0.14264467
1.085 -0.50397456 -0.14264467
1.052 -0.43542734 -0.1400229
1.0549999 -0.43839064 -0.1404222
1.0549999 -0.44011229 -0.1404222
1.059 -0.44350916 -0.1409546
1.061 -0.44607815 -0.14122081
1.061 -0.44780961 -0.14122081
1.063 -0.4503884 -0.141487
1.066 -0.45339909 -0.14188631
1.066 -0.45513868 -0.14188631
1.0700001 -0.45859265 -0.14241873
1.072 -0.46119919 -0.14268492
1.072 -0.46294859 -0.14268492
1.074 -0.46556494 -0.14295113
1.074 -0.46731758 -0.14295113
1.076 -0.4699437 -0.14321733
1.076 -0.4716996 -0.14321733
1.076 -0.47345552 -0.14321733
1.0779999 -0.47609469 -0.14348352
1.079 -0.47829717 -0.14361663
1.079 -0.48005795 -0.14361663
1.0829999 -0.48360491 -0.14414904
1.0829999 -0.48537225 -0.14414904
1.0829999 -0.48713958 -0.14414904
1.0829999 -0.48890689 -0.14414904
1.0829999 -0.49067423 -0.14414904
1.085 -0.49335101 -0.14441524
1.085 -0.4951216 -0.14441524
1.085 -0.49689218 -0.14441524
1.089 -0.50050116 -0.14494765
1.089 -0.50227827 -0.14494765
1.089 -0.50405538 -0.14494765
1.089 -0.50583249 -0.14494765
1.039 -0.4130913 -0.13998808
1.039 -0.41478685 -0.13998808
1.041 -0.41728404 -0.14025755
1.043 -0.41978779 -0.14052701
1.043 -0.42148986 -0.14052701
1.045 -0.42400339 -0.14079648
1.046 -0.42611611 -0.14093122
1.046 -0.42782304 -0.14093122
1.05 -0.43117255 -0.14147015
1.052 -0.4337106 -0.14173962
1.052 -0.43542734 -0.14173962
1.0549999 -0.43839064 -0.14214382
1.0549999 -0.44011229 -0.14214382
1.059 -0.44350916 -0.14268275
1.061 -0.44607815 -0.14295222
1.061 -0.44780961 -0.14295222
1.063 -0.4503884 -0.14322168
1.066 -0.45339909 -0.14362589
1.066 -0.45513868 -0.14362589
1.0700001 -0.45859265 -0.14416483
1.072 -0.46119919 -0.14443429
1.072 -0.46294859 -0.14443429
1.074 -0.46556494 -0.14470375
1.074 -0.46731758 -0.14470375
1.076 -0.4699437 -0.14497322
1.076 -0.4716996 -0.14497322
1.076 -0.47345552 -0.14497322
1.0779999 -0.47609469 -0.14524268
1.079 -0.47829717 -0.14537741
1.079 -0.48005795 -0.14537741
1.0829999 -0.48360491 -0.14591634
1.0829999 -0.48537225 -0.14591634
1.0829999 -0.48713958 -0.14591634
1.0829999 -0.48890689 -0.14591634
1.0829999 -0.49067423 -0.14591634
1.085 -0.49335101 -0.14618583
1.085 -0.4951216 -0.14618583
1.085 -0.49689218 -0.14618583
1.089 -0.50050116 -0.14672475
1.089 -0.50227827 -0.14672475
1.089 -0.50405538 -0.14672475
1.089 -0.50583249 -0.14672475
1.041 -0.40029615 -0.14195633
1.041 -0.40199494 -0.14195633
1.041 -0.40369374 -0.14195633
1.041 -0.40539253 -0.14195633
1.041 -0.40709132 -0.14195633
1.041 -0.40879011 -0.14195633
1.041 -0.4104889 -0.14195633
1.041 -0.4121877 -0.14195633
1.043 -0.41468164 -0.14222905
1.043 -0.41638368 -0.14222905
1.043 -0.41808575 -0.14222905
1.046 -0.42099524 -0.14263815
1.046 -0.42270219 -0.14263815
1.048 -0.42522064 -0.14291088
1.05 -0.42774558 -0.1431836
1.05 -0.42945907 -0.1431836
1.052 -0.43199384 -0.14345634
1.0549999 -0.43494737 -0.14386544
1.0549999 -0.43666902 -0.14386544
1.059 -0.44005281 -0.14441089
1.059 -0.44178098 -0.14441089
1.063 -0.44518432 -0.14495635
1.0650001 -0.44775993 -0.1452291
1.0650001 -0.44949788 -0.1452291
1.068 -0.45250687 -0.14563818
1.0700001 -0.45510042 -0.14591092
1.0700001 -0.45684654 -0.14591092
1.076 -0.46116418 -0.14672911
1.0779999 -0.46378052 -0.14700183
1.0779999 -0.46553969 -0.14700183
1.079 -0.46773237 -0.14713821
1.079 -0.46949315 -0.14713821
1.079 -0.47125396 -0.14713821
1.081 -0.47389153 -0.14741093
1.081 -0.47565559 -0.14741093
1.0829999 -0.47830293 -0.14768367
1.085 -0.48095685 -0.1479564
1.085 -0.48272744 -0.1479564
1.087 -0.48539111 -0.14822912
1.087 -0.48716497 -0.14822912
1.087 -0.48893884 -0.14822912
1.087 -0.49071267 -0.14822912
1.087 -0.49248654 -0.14822912
1.087 -0.4942604 -0.14822912
1.087 -0.49603426 -0.14822912
1.087 -0.4978081 -0.14822912
1.091 -0.50142032 -0.14877458
1.091 -0.50320071 -0.14877458
1.0930001 -0.50590688 -0.14904733
1.0930001 -0.50769049 -0.14904733
1.046 -0.38856322 -0.14434507
1.046 -0.39027014 -0.14434507
1.046 -0.3919771 -0.14434507
1.046 -0.39368406 -0.14434507
1.046 -0.39539099 -0.14434507
1.045 -0.39671829 -0.14420708
1.045 -0.39842361 -0.14420708
1.045 -0.40012893 -0.14420708
1.045 -0.40183425 -0.14420708
1.045 -0.40353957 -0.14420708
1.045 -0.40524489 -0.14420708
1.045 -0.40695021 -0.14420708
1.045 -0.40865552 -0.14420708
1.045 -0.41036084 -0.14420708
1.045 -0.41206616 -0.14420708
1.045 -0.41377148 -0.14420708
1.045 -0.4154768 -0.14420708
1.045 -0.41718212 -0.14420708
1.046 -0.41928831 -0.14434507
1.048 -0.4218002 -0.14462107
1.048 -0.4235104 -0.14462107
1.05 -0.4260321 -0.14489706
1.052 -0.42856038 -0.14517307
1.052 -0.43027711 -0.14517307
1.0549999 -0.43322575 -0.14558704
1.059 -0.43659648 -0.14613904
1.059 -0.43832466 -0.14613904
1.063 -0.44171494 -0.14669102
1.063 -0.44344965 -0.14669102
1.066 -0.44644073 -0.14710502
1.0700001 -0.44986209 -0.14765702
1.0700001 -0.45160818 -0.14765702
1.074 -0.45504907 -0.14820901
1.076 -0.45765236 -0.14848499
1.076 -0.45940825 -0.14848499
1.081 -0.46330711 -0.14917497
1.0829999 -0.46593162 -0.14945097
1.0829999 -0.46769896 -0.14945097
1.0829999 -0.46946627 -0.14945097
1.0829999 -0.47123361 -0.14945097
1.085 -0.47387448 -0.14972697
1.087 -0.47652182 -0.15000297
1.087 -0.47829568 -0.15000297
1.087 -0.48006955 -0.15000297
1.089 -0.48272994 -0.15027896
1.089 -0.48450705 -0.15027896
1.0930001 -0.4880704 -0.15083095
1.0930001 -0.48985404 -0.15083095
1.091 -0.49073803 -0.15055496
1.091 -0.49251842 -0.15055496
1.091 -0.49429879 -0.15055496
1.091 -0.49607918 -0.15055496
1.0930001 -0.49877226 -0.15083095
1.0930001 -0.50055593 -0.15083095
1.095 -0.50325876 -0.15110695
1.097 -0.50596809 -0.15138294
1.097 -0.50775826 -0.15138294
1.097 -0.50954849 -0.15138294
1.043 -0.37383235 -0.14563313
1.043 -0.37553439 -0.14563313
1.043 -0.37723646 -0.14563313
1.045 -0.37966514 -0.14591238
1.045 -0.38137043 -0.14591238
1.045 -0.38307574 -0.14591238
1.045 -0.38478106 -0.14591238
1.045 -0.38648638 -0.14591238
1.046 -0.38856322 -0.14605202
1.046 -0.39027014 -0.14605202
1.046 -0.3919771 -0.14605202
1.046 -0.39368406 -0.14605202
1.046 -0.39539099 -0.14605202
1.045 -0.39671829 -0.14591238
1.045 -0.39842361 -0.14591238
1.045 -0.40012893 -0.14591238
1.045 -0.40183425 -0.14591238
1.045 -0.40353957 -0.14591238
1.045 -0.40524489 -0.14591238
1.045 -0.40695021 -0.14591238
1.045 -0.40865552 -0.14591238
1.045 -0.41036084 -0.14591238
1.045 -0.41206616 -0.14591238
1.045 -0.41377148 -0.14591238
1.045 -0.4154768 -0.14591238
1.045 -0.41718212 -0.14591238
1.046 -0.41928831 -0.14605202
1.048 -0.4218002 -0.14633127
1.048 -0.4235104 -0.14633127
1.05 -0.4260321 -0.14661053
1.052 -0.42856038 -0.14688979
1.052 -0.43027711 -0.14688979
1.0549999 -0.43322575 -0.14730866
1.059 -0.43659648 -0.14786719
1.059 -0.43832466 -0.14786719
1.063 -0.44171494 -0.1484257
1.063 -0.44344965 -0.1484257
1.066 -0.44644073 -0.1488446
1.0700001 -0.44986209 -0.14940313
1.0700001 -0.45160818 -0.14940313
1.074 -0.45504907 -0.14996164
1.076 -0.45765236 -0.15024088
1.076 -0.45940825 -0.15024088
1.081 -0.46330711 -0.15093903
1.0829999 -0.46593162 -0.15121828
1.0829999 -0.46769896 -0.15121828
1.0829999 -0.46946627 -0.15121828
1.0829999 -0.47123361 -0.15121828
1.085 -0.47387448 -0.15149756
1.087 -0.47652182 -0.15177681
1.087 -0.47829568 -0.15177681
1.087 -0.48006955 -0.15177681
1.089 -0.48272994 -0.15205607
1.089 -0.48450705 -0.15205607
1.0930001 -0.4880704 -0.15261459
1.0930001 -0.48985404 -0.15261459
1.091 -0.49073803 -0.15233532
1.091 -0.49251842 -0.15233532
1.091 -0.49429879 -0.15233532
1.091 -0.49607918 -0.15233532
1.0930001 -0.49877226 -0.15261459
1.0930001 -0.50055593 -0.15261459
1.095 -0.50325876 -0.15289384
1.097 -0.50596809 -0.1531731
1.046 -0.36125201 -0.14775895
1.046 -0.36295897 -0.14775895
1.046 -0.3646659 -0.14775895
1.046 -0.36637285 -0.14775895
1.046 -0.36807981 -0.14775895
1.046 -0.36978677 -0.14775895
1.048 -0.37220401 -0.14804147
1.048 -0.37391421 -0.14804147
1.048 -0.37562445 -0.14804147
1.048 -0.37733465 -0.14804147
1.048 -0.37904486 -0.14804147
1.048 -0.38075507 -0.14804147
1.048 -0.3824653 -0.14804147
1.05 -0.38490865 -0.14832398
1.05 -0.38662213 -0.14832398
1.05 -0.38833562 -0.14832398
1.05 -0.3900491 -0.14832398
1.05 -0.39176255 -0.14832398
1.05 -0.39347604 -0.14832398
1.052 -0.3959423 -0.14860652
1.05 -0.39690301 -0.14832398
1.05 -0.39861646 -0.14832398
1.05 -0.40032995 -0.14832398
1.05 -0.40204343 -0.14832398
1.05 -0.40375692 -0.14832398
1.048 -0.40469807 -0.14804147
1.048 -0.40640828 -0.14804147
1.048 -0.40811849 -0.14804147
1.048 -0.40982869 -0.14804147
1.046 -0.41075355 -0.14775895
1.046 -0.41246051 -0.14775895
1.046 -0.41416746 -0.14775895
1.048 -0.41666955 -0.14804147
1.048 -0.41837978 -0.14804147
1.048 -0.42008999 -0.14804147
1.05 -0.42260516 -0.14832398
1.05 -0.42431864 -0.14832398
1.054 -0.4276551 -0.14888903
1.057 -0.43059725 -0.14931282
1.057 -0.43232214 -0.14931282
1.059 -0.43486834 -0.14959534
1.063 -0.43824556 -0.15016037
1.063 -0.43998024 -0.15016037
1.066 -0.44296157 -0.15058416
1.066 -0.44470114 -0.15058416
1.072 -0.44895354 -0.15143174
1.074 -0.45154378 -0.15171425
1.074 -0.45329642 -0.15171425
1.0779999 -0.45674384 -0.15227929
1.079 -0.45892835 -0.15242055
1.079 -0.46068916 -0.15242055
1.085 -0.46502152 -0.15326813
1.089 -0.46851298 -0.15383317
1.089 -0.47029009 -0.15383317
1.089 -0.47206721 -0.15383317
1.089 -0.47384435 -0.15383317
1.089 -0.47562146 -0.15383317
1.091 -0.47827533 -0.15411568
1.091 -0.48005572 -0.15411568
1.091 -0.48183611 -0.15411568
1.095 -0.48538962 -0.15468074
1.095 -0.48717654 -0.15468074
1.097 -0.48985654 -0.15496325
1.099 -0.49254304 -0.15524578
1.097 -0.49343687 -0.15496325
1.097 -0.49522707 -0.15496325
1.095 -0.49611109 -0.15468074
1.095 -0.49789801 -0.15468074
1.097 -0.5005976 -0.15496325
1.097 -0.50238776 -0.15496325
1.099 -0.50509709 -0.15524578
1.048 -0.34826103 -0.14975166
1.048 -0.34997123 -0.14975166
1.048 -0.35168144 -0.14975166
1.048 -0.35339168 -0.14975166
1.046 -0.35442421 -0.14946587
1.046 -0.35613117 -0.14946587
1.046 -0.35783809 -0.14946587
1.046 -0.35954505 -0.14946587
1.046 -0.36125201 -0.14946587
1.046 -0.36295897 -0.14946587
1.046 -0.3646659 -0.14946587
1.046 -0.36637285 -0.14946587
1.046 -0.36807981 -0.14946587
1.046 -0.36978677 -0.14946587
1.048 -0.37220401 -0.14975166
1.048 -0.37391421 -0.14975166
1.048 -0.37562445 -0.14975166
1.048 -0.37733465 -0.14975166
1.048 -0.37904486 -0.14975166
1.054 -0.38293499 -0.15060903
1.054 -0.384655 -0.15060903
1.054 -0.38637501 -0.15060903
1.0549999 -0.3884632 -0.1507519
1.0549999 -0.39018482 -0.1507519
1.0549999 -0.39190647 -0.1507519
1.0549999 -0.39362809 -0.1507519
1.0549999 -0.39534974 -0.1507519
1.0549999 -0.39707136 -0.1507519
1.054 -0.39841503 -0.15060903
1.054 -0.40013504 -0.15060903
1.054 -0.40185505 -0.15060903
1.052 -0.40280926 -0.15032324
1.052 -0.404526 -0.15032324
1.052 -0.40624273 -0.15032324
1.052 -0.40795949 -0.15032324
1.052 -0.40967622 -0.15032324
1.05 -0.41061082 -0.15003744
1.05 -0.41232428 -0.15003744
1.05 -0.41403776 -0.15003744
1.05 -0.41575125 -0.15003744
1.05 -0.41746473 -0.15003744
1.05 -0.41917819 -0.15003744
1.052 -0.42169341 -0.15032324
1.0549999 -0.42461756 -0.1507519
1.0549999 -0.42633918 -0.1507519
1.057 -0.42887235 -0.15103771
1.059 -0.43141201 -0.15132348
1.059 -0.43314016 -0.15132348
1.063 -0.43651086 -0.15189505
1.066 -0.43948239 -0.15232374
1.066 -0.44122198 -0.15232374
1.0700001 -0.44462374 -0.15289532
1.0700001 -0.44636986 -0.15289532
1.074 -0.44979113 -0.15346688
1.076 -0.45238465 -0.15375265
1.076 -0.45414054 -0.15375265
1.081 -0.45801494 -0.15446712
1.085 -0.46148032 -0.1550387
1.085 -0.46325094 -0.1550387
1.089 -0.46673587 -0.15561026
1.091 -0.4693734 -0.15589605
1.091 -0.4711538 -0.15589605
1.0930001 -0.4738012 -0.15618186
1.0930001 -0.47558483 -0.15618186
1.095 -0.47824198 -0.15646763
1.095 -0.4800289 -0.15646763
1.095 -0.48181581 -0.15646763
1.097 -0.48448601 -0.15675342
1.099 -0.48716271 -0.1570392
1.099 -0.48895615 -0.1570392
1.099 -0.49433649 -0.1570392
1.099 -0.49612993 -0.1570392
1.099 -0.49792337 -0.1570392
1.099 -0.49971679 -0.1570392
1.046 -0.3339408 -0.15117282
1.046 -0.33564776 -0.15117282
1.046 -0.33735472 -0.15117282
1.046 -0.33906165 -0.15117282
1.046 -0.34076861 -0.15117282
1.048 -0.34313038 -0.15146185
1.048 -0.34484059 -0.15146185
1.048 -0.34655082 -0.15146185
1.048 -0.34826103 -0.15146185
1.048 -0.34997123 -0.15146185
1.048 -0.35168144 -0.15146185
1.048 -0.35339168 -0.15146185
1.048 -0.35510188 -0.15146185
1.048 -0.35681209 -0.15146185
1.048 -0.3585223 -0.15146185
1.048 -0.3602325 -0.15146185
1.048 -0.36194274 -0.15146185
1.048 -0.36365294 -0.15146185
1.048 -0.36536315 -0.15146185
1.05 -0.36777389 -0.15175091
1.05 -0.36948735 -0.15175091
1.05 -0.37120083 -0.15175091
1.052 -0.37362465 -0.15203997
1.052 -0.37534142 -0.15203997
1.052 -0.37705815 -0.15203997
1.052 -0.37877488 -0.15203997
1.052 -0.38049161 -0.15203997
1.054 -0.38293499 -0.15232901
1.054 -0.384655 -0.15232901
1.054 -0.38637501 -0.15232901
1.0549999 -0.3884632 -0.15247352
1.0549999 -0.39018482 -0.15247352
1.0549999 -0.39190647 -0.15247352
1.0549999 -0.39362809 -0.15247352
1.0549999 -0.39534974 -0.15247352
1.0549999 -0.39707136 -0.15247352
1.054 -0.39841503 -0.15232901
1.054 -0.40013504 -0.15232901
1.054 -0.40185505 -0.15232901
1.052 -0.40280926 -0.15203997
1.052 -0.404526 -0.15203997
1.052 -0.40624273 -0.15203997
1.052 -0.40795949 -0.15203997
1.052 -0.40967622 -0.15203997
1.05 -0.41061082 -0.15175091
1.05 -0.41232428 -0.15175091
1.05 -0.41403776 -0.15175091
1.05 -0.41575125 -0.15175091
1.05 -0.41746473 -0.15175091
1.05 -0.41917819 -0.15175091
1.052 -0.42169341 -0.15203997
1.0549999 -0.42461756 -0.15247352
1.0549999 -0.42633918 -0.15247352
1.057 -0.42887235 -0.15276259
1.059 -0.43141201 -0.15305163
1.059 -0.43314016 -0.15305163
1.063 -0.43651086 -0.15362972
1.066 -0.43948239 -0.1540633
1.066 -0.44122198 -0.1540633
1.0700001 -0.44462374 -0.15464142
1.0700001 -0.44636986 -0.15464142
1.074 -0.44979113 -0.15521951
1.076 -0.45238465 -0.15550855
1.076 -0.45414054 -0.15550855
1.081 -0.45801494 -0.15623118
1.085 -0.46148032 -0.15680929
1.085 -0.46325094 -0.15680929
1.089 -0.46673587 -0.15738738
1.091 -0.4693734 -0.15767641
1.091 -0.4711538 -0.15767641
1.0930001 -0.4738012 -0.15796548
1.0930001 -0.47558483 -0.15796548
1.095 -0.47824198 -0.15825452
1.095 -0.4800289 -0.15825452
1.095 -0.48181581 -0.15825452
1.097 -0.48448601 -0.15854357
1.099 -0.48716271 -0.15883262
1.099 -0.48895615 -0.15883262
1.099 -0.49433649 -0.15883262
1.099 -0.49612993 -0.15883262
1.099 -0.49792337 -0.15883262
1.099 -0.49971679 -0.15883262
1.046 -0.3202852 -0.15287974
1.046 -0.32199216 -0.15287974
1.046 -0.32369912 -0.15287974
1.046 -0.32540607 -0.15287974
1.046 -0.327113 -0.15287974
1.046 -0.32881996 -0.15287974
1.046 -0.33052692 -0.15287974
1.046 -0.33223388 -0.15287974
1.048 -0.33457932 -0.15317206
1.048 -0.33628953 -0.15317206
1.048 -0.33799973 -0.15317206
1.048 -0.33970997 -0.15317206
1.048 -0.34142017 -0.15317206
1.048 -0.34313038 -0.15317206
1.05 -0.34549868 -0.15346436
1.048 -0.34655082 -0.15317206
1.048 -0.34826103 -0.15317206
1.048 -0.34997123 -0.15317206
1.05 -0.35235259 -0.15346436
1.05 -0.35406607 -0.15346436
1.05 -0.35577953 -0.15346436
1.05 -0.35749301 -0.15346436
1.05 -0.3592065 -0.15346436
1.05 -0.36091998 -0.15346436
1.05 -0.36263344 -0.15346436
1.05 -0.36434692 -0.15346436
1.052 -0.36675769 -0.15375669
1.052 -0.36847442 -0.15375669
1.052 -0.37019119 -0.15375669
1.054 -0.37261495 -0.15404899
1.054 -0.37433496 -0.15404899
1.054 -0.37605497 -0.15404899
1.0549999 -0.37813336 -0.15419514
1.0549999 -0.37985501 -0.15419514
1.057 -0.38230005 -0.15448748
1.057 -0.38402495 -0.15448748
1.057 -0.38574985 -0.15448748
1.059 -0.38820788 -0.15477978
1.059 -0.38993606 -0.15477978
1.059 -0.39166424 -0.15477978
1.059 -0.39339238 -0.15477978
1.061 -0.39586675 -0.15507209
1.061 -0.39759818 -0.15507209
1.061 -0.3993296 -0.15507209
1.059 -0.40030503 -0.15477978
1.057 -0.40127394 -0.15448748
1.057 -0.40299883 -0.15448748
1.0549999 -0.4039579 -0.15419514
1.0549999 -0.40567955 -0.15419514
1.0549999 -0.4074012 -0.15419514
1.0549999 -0.40912282 -0.15419514
1.0549999 -0.41084448 -0.15419514
1.054 -0.41217506 -0.15404899
1.052 -0.41310972 -0.15375669
1.052 -0.41482645 -0.15375669
1.052 -0.41654319 -0.15375669
1.054 -0.41905507 -0.15404899
1.054 -0.42077509 -0.15404899
1.054 -0.4224951 -0.15404899
1.057 -0.42542255 -0.15448748
1.057 -0.42714745 -0.15448748
1.059 -0.42968383 -0.15477978
1.061 -0.43222675 -0.15507209
1.061 -0.43395817 -0.15507209
1.0650001 -0.43733218 -0.15565673
1.0700001 -0.4411315 -0.15638751
1.0700001 -0.44287762 -0.15638751
1.072 -0.44545481 -0.15667982
1.072 -0.44720417 -0.15667982
1.0779999 -0.45146632 -0.15755674
1.081 -0.45448679 -0.15799522
1.081 -0.45625085 -0.15799522
1.085 -0.45970973 -0.15857986
1.089 -0.46318161 -0.15916447
1.089 -0.46495873 -0.15916447
1.0930001 -0.46845025 -0.15974911
1.095 -0.47109434 -0.16004142
1.095 -0.47288126 -0.16004142
1.097 -0.47553512 -0.16033374
1.097 -0.47732529 -0.16033374
1.099 -0.47998896 -0.16062604
1.038 -0.30089667 -0.15340437
1.039 -0.30457762 -0.15355216
1.039 -0.30627313 -0.15355216
1.041 -0.30856147 -0.15384774
1.045 -0.31145242 -0.15443888
1.045 -0.31315774 -0.15443888
1.045 -0.31486306 -0.15443888
1.046 -0.31687132 -0.15458667
1.046 -0.31857827 -0.15458667
1.046 -0.3202852 -0.15458667
1.046 -0.32199216 -0.15458667
1.046 -0.32369912 -0.15458667
1.046 -0.32540607 -0.15458667
1.046 -0.327113 -0.15458667
1.046 -0.32881996 -0.15458667
1.046 -0.33052692 -0.15458667
1.046 -0.33223388 -0.15458667
1.048 -0.33457932 -0.15488225
1.048 -0.33628953 -0.15488225
1.048 -0.33799973 -0.15488225
1.048 -0.33970997 -0.15488225
1.048 -0.34142017 -0.15488225
1.048 -0.34313038 -0.15488225
1.05 -0.34549868 -0.15517783
1.048 -0.34655082 -0.15488225
1.048 -0.34826103 -0.15488225
1.048 -0.34997123 -0.15488225
1.05 -0.35235259 -0.15517783
1.05 -0.35406607 -0.15517783
1.05 -0.35577953 -0.15517783
1.05 -0.35749301 -0.15517783
1.05 -0.3592065 -0.15517783
1.05 -0.36091998 -0.15517783
1.05 -0.36263344 -0.15517783
1.05 -0.36434692 -0.15517783
1.052 -0.36675769 -0.15547341
1.052 -0.36847442 -0.15547341
1.052 -0.37019119 -0.15547341
1.054 -0.37261495 -0.15576899
1.054 -0.37433496 -0.15576899
1.054 -0.37605497 -0.15576899
1.0549999 -0.37813336 -0.15591677
1.0549999 -0.37985501 -0.15591677
1.057 -0.38230005 -0.15621236
1.057 -0.38402495 -0.15621236
1.057 -0.38574985 -0.15621236
1.059 -0.38820788 -0.15650792
1.059 -0.38993606 -0.15650792
1.059 -0.39166424 -0.15650792
1.059 -0.39339238 -0.15650792
1.061 -0.39586675 -0.1568035
1.061 -0.39759818 -0.1568035
1.061 -0.3993296 -0.1568035
1.059 -0.40030503 -0.15650792
1.057 -0.40127394 -0.15621236
1.057 -0.40299883 -0.15621236
1.0549999 -0.4039579 -0.15591677
1.0549999 -0.40567955 -0.15591677
1.0549999 -0.4074012 -0.15591677
1.0549999 -0.40912282 -0.15591677
1.0549999 -0.41084448 -0.15591677
1.054 -0.41217506 -0.15576899
1.052 -0.41310972 -0.15547341
1.052 -0.41482645 -0.15547341
1.052 -0.41654319 -0.15547341
1.054 -0.41905507 -0.15576899
1.054 -0.42077509 -0.15576899
1.054 -0.4224951 -0.15576899
1.057 -0.42542255 -0.15621236
1.057 -0.42714745 -0.15621236
1.059 -0.42968383 -0.15650792
1.061 -0.43222675 -0.1568035
1.061 -0.43395817 -0.1568035
1.0650001 -0.43733218 -0.15739466
1.0700001 -0.4411315 -0.15813361
1.0700001 -0.44287762 -0.15813361
1.072 -0.44545481 -0.15842918
1.072 -0.44720417 -0.15842918
1.0779999 -0.45146632 -0.1593159
1.081 -0.45448679 -0.15975927
1.081 -0.45625085 -0.15975927
1.085 -0.45970973 -0.16035043
1.089 -0.46318161 -0.16094159
1.089 -0.46495873 -0.16094159
1.0930001 -0.46845025 -0.16153274
1.095 -0.47109434 -0.16182831
1.095 -0.47288126 -0.16182831
1.097 -0.47553512 -0.16212389
1.097 -0.47732529 -0.16212389
1.099 -0.47998896 -0.16241947
1.038 -0.2873455 -0.15509824
1.038 -0.2890394 -0.15509824
1.039 -0.29101339 -0.15524767
1.039 -0.29270893 -0.15524767
1.039 -0.29440445 -0.15524767
1.039 -0.29609999 -0.15524767
1.039 -0.2977955 -0.15524767
1.041 -0.30006751 -0.15554652
1.041 -0.30176631 -0.15554652
1.043 -0.30404812 -0.15584534
1.043 -0.30575019 -0.15584534
1.043 -0.30745223 -0.15584534
1.045 -0.3097471 -0.15614419
1.046 -0.31175047 -0.15629362
1.046 -0.31345743 -0.15629362
1.046 -0.31516436 -0.15629362
1.048 -0.31747717 -0.15659244
1.048 -0.3191874 -0.15659244
1.05 -0.32150999 -0.15689129
1.05 -0.32322347 -0.15689129
1.05 -0.32493696 -0.15689129
1.05 -0.32665044 -0.15689129
1.05 -0.3283639 -0.15689129
1.05 -0.33007738 -0.15689129
1.05 -0.33179086 -0.15689129
1.05 -0.33350435 -0.15689129
1.05 -0.3352178 -0.15689129
1.05 -0.33693129 -0.15689129
1.05 -0.33864477 -0.15689129
1.05 -0.34035826 -0.15689129
1.05 -0.34207171 -0.15689129
1.05 -0.3437852 -0.15689129
1.05 -0.34549868 -0.15689129
1.05 -0.34721217 -0.15689129
1.05 -0.34892562 -0.15689129
1.05 -0.3506391 -0.15689129
1.052 -0.35302377 -0.15719014
1.052 -0.3547405 -0.15719014
1.052 -0.35645726 -0.15719014
1.052 -0.358174 -0.15719014
1.052 -0.35989073 -0.15719014
1.052 -0.36160746 -0.15719014
1.054 -0.36401492 -0.15748897
1.054 -0.36573493 -0.15748897
1.0549999 -0.36780354 -0.15763839
1.057 -0.37022573 -0.15793724
1.057 -0.37195063 -0.15793724
1.057 -0.37367555 -0.15793724
1.059 -0.37611073 -0.15823607
1.059 -0.37783891 -0.15823607
1.061 -0.38028389 -0.15853491
1.063 -0.38273543 -0.15883376
1.061 -0.38374677 -0.15853491
1.061 -0.3854782 -0.15853491
1.061 -0.38720962 -0.15853491
1.063 -0.38967419 -0.15883376
1.063 -0.39140889 -0.15883376
1.063 -0.39314356 -0.15883376
1.0650001 -0.39562124 -0.1591326
1.0650001 -0.39735922 -0.1591326
1.0650001 -0.39909717 -0.1591326
1.0650001 -0.40083513 -0.1591326
1.063 -0.40181702 -0.15883376
1.061 -0.40279245 -0.15853491
1.061 -0.40452391 -0.15853491
1.061 -0.40625533 -0.15853491
1.059 -0.40721771 -0.15823607
1.059 -0.40894586 -0.15823607
1.059 -0.41067404 -0.15823607
1.059 -0.41240218 -0.15823607
1.057 -0.41334826 -0.15793724
1.057 -0.41507316 -0.15793724
1.057 -0.41679806 -0.15793724
1.0549999 -0.41773102 -0.15763839
1.0549999 -0.41945264 -0.15763839
1.057 -0.42197275 -0.15793724
1.057 -0.42369765 -0.15793724
1.059 -0.42622751 -0.15823607
1.059 -0.42795566 -0.15823607
1.061 -0.43049532 -0.15853491
1.0650001 -0.43385628 -0.1591326
1.0650001 -0.43559423 -0.1591326
1.068 -0.43856406 -0.15958086
1.072 -0.44195604 -0.16017854
1.072 -0.44370541 -0.16017854
1.076 -0.44711691 -0.16077621
1.076 -0.44887283 -0.16077621
1.079 -0.45188513 -0.16122448
1.085 -0.45616856 -0.16212101
1.085 -0.45793915 -0.16212101
1.091 -0.46225187 -0.16301751
1.099 -0.46743488 -0.16421288
1.099 -0.46922833 -0.16421288
1.039 -0.27744919 -0.15694319
1.039 -0.2791447 -0.15694319
1.039 -0.28084025 -0.15694319
1.039 -0.28253576 -0.15694319
1.039 -0.28423131 -0.15694319
1.039 -0.28592682 -0.15694319
1.039 -0.28762233 -0.15694319
1.039 -0.28931788 -0.15694319
1.041 -0.29157358 -0.15724528
1.041 -0.29327238 -0.15724528
1.041 -0.29497114 -0.15724528
1.043 -0.2972399 -0.15754738
1.043 -0.29894197 -0.15754738
1.043 -0.30064401 -0.15754738
1.043 -0.30234608 -0.15754738
1.045 -0.30463114 -0.15784949
1.046 -0.30662963 -0.15800054
1.046 -0.30833656 -0.15800054
1.046 -0.31004351 -0.15800054
1.048 -0.31234655 -0.15830265
1.048 -0.31405675 -0.15830265
1.05 -0.31636956 -0.15860474
1.052 -0.31868896 -0.15890686
1.052 -0.32040569 -0.15890686
1.052 -0.32212242 -0.15890686
1.052 -0.32383916 -0.15890686
1.052 -0.32555592 -0.15890686
1.052 -0.32727265 -0.15890686
1.052 -0.32898939 -0.15890686
1.052 -0.33070612 -0.15890686
1.052 -0.33242288 -0.15890686
1.052 -0.33413962 -0.15890686
1.052 -0.33585635 -0.15890686
1.052 -0.33757311 -0.15890686
1.052 -0.33928984 -0.15890686
1.052 -0.34100658 -0.15890686
1.052 -0.34272331 -0.15890686
1.052 -0.34444007 -0.15890686
1.052 -0.34615681 -0.15890686
1.052 -0.34787354 -0.15890686
1.052 -0.34959027 -0.15890686
1.052 -0.35130703 -0.15890686
1.054 -0.35369492 -0.15920897
1.054 -0.3554149 -0.15920897
1.054 -0.35713491 -0.15920897
1.054 -0.35885492 -0.15920897
1.0549999 -0.360917 -0.15936001
1.0549999 -0.36263865 -0.15936001
1.057 -0.36505103 -0.15966213
1.057 -0.36677593 -0.15966213
1.059 -0.36919808 -0.15996422
1.061 -0.37162676 -0.16026632
1.061 -0.37335819 -0.16026632
1.061 -0.37508962 -0.16026632
1.0650001 -0.37824169 -0.16087054
1.0650001 -0.37997964 -0.16087054
1.0650001 -0.38171762 -0.16087054
1.066 -0.38381559 -0.16102159
1.066 -0.38555518 -0.16102159
1.068 -0.38802138 -0.16132368
1.068 -0.38976425 -0.16132368
1.068 -0.39150709 -0.16132368
1.068 -0.39324993 -0.16132368
1.068 -0.3949928 -0.16132368
1.068 -0.39673564 -0.16132368
1.068 -0.39847851 -0.16132368
1.068 -0.40022135 -0.16132368
1.068 -0.40196419 -0.16132368
1.066 -0.40295106 -0.16102159
1.066 -0.40469065 -0.16102159
1.066 -0.40643021 -0.16102159
1.066 -0.40816981 -0.16102159
1.0650001 -0.40952489 -0.16087054
1.0650001 -0.41126284 -0.16087054
1.063 -0.41222519 -0.16056843
1.063 -0.41395989 -0.16056843
1.061 -0.41491246 -0.16026632
1.061 -0.41664389 -0.16026632
1.061 -0.41837531 -0.16026632
1.059 -0.41931486 -0.15996422
1.059 -0.42104301 -0.15996422
1.059 -0.42277119 -0.15996422
1.059 -0.42449933 -0.15996422
1.063 -0.4278374 -0.16056843
1.063 -0.42957211 -0.16056843
1.063 -0.43130678 -0.16056843
1.0650001 -0.43385628 -0.16087054
1.0650001 -0.43559423 -0.16087054
1.068 -0.43856406 -0.16132368
1.074 -0.44278058 -0.16223
1.074 -0.44453323 -0.16223
1.0829999 -0.45002565 -0.16358946
1.091 -0.45513034 -0.16479789
1.091 -0.45691073 -0.16479789
1.099 -0.46205458 -0.16600631
1.099 -0.46384802 -0.16600631
1.041 -0.25759777 -0.15894406
1.041 -0.25929657 -0.15894406
1.041 -0.26099536 -0.15894406
1.039 -0.26218945 -0.1586387
1.039 -0.26388496 -0.1586387
1.039 -0.26558051 -0.1586387
1.039 -0.26727602 -0.1586387
1.039 -0.26897156 -0.1586387
1.038 -0.27040657 -0.15848601
1.038 -0.27210045 -0.15848601
1.038 -0.27379435 -0.15848601
1.038 -0.27548826 -0.15848601
1.038 -0.27718213 -0.15848601
1.038 -0.27887604 -0.15848601
1.039 -0.28084025 -0.1586387
1.039 -0.28253576 -0.1586387
1.039 -0.28423131 -0.1586387
1.039 -0.28592682 -0.1586387
1.039 -0.28762233 -0.1586387
1.039 -0.28931788 -0.1586387
1.041 -0.29157358 -0.15894406
1.041 -0.29327238 -0.15894406
1.041 -0.29497114 -0.15894406
1.043 -0.2972399 -0.15924942
1.043 -0.29894197 -0.15924942
1.043 -0.30064401 -0.15924942
1.043 -0.30234608 -0.15924942
1.045 -0.30463114 -0.15955479
1.046 -0.30662963 -0.15970747
1.046 -0.30833656 -0.15970747
1.046 -0.31004351 -0.15970747
1.048 -0.31234655 -0.16001284
1.048 -0.31405675 -0.16001284
1.05 -0.31636956 -0.16031821
1.052 -0.31868896 -0.1606236
1.052 -0.32040569 -0.1606236
1.052 -0.32212242 -0.1606236
1.052 -0.32383916 -0.1606236
1.052 -0.32555592 -0.1606236
1.052 -0.32727265 -0.1606236
1.052 -0.32898939 -0.1606236
1.052 -0.33070612 -0.1606236
1.052 -0.33242288 -0.1606236
1.052 -0.33413962 -0.1606236
1.052 -0.33585635 -0.1606236
1.052 -0.33757311 -0.1606236
1.052 -0.33928984 -0.1606236
1.052 -0.34100658 -0.1606236
1.052 -0.34272331 -0.1606236
1.052 -0.34444007 -0.1606236
1.052 -0.34615681 -0.1606236
1.052 -0.34787354 -0.1606236
1.052 -0.34959027 -0.1606236
1.052 -0.35130703 -0.1606236
1.054 -0.35369492 -0.16092895
1.054 -0.3554149 -0.16092895
1.054 -0.35713491 -0.16092895
1.054 -0.35885492 -0.16092895
1.0549999 -0.360917 -0.16108163
1.0549999 -0.36263865 -0.16108163
1.057 -0.36505103 -0.16138701
1.057 -0.36677593 -0.16138701
1.059 -0.36919808 -0.16169237
1.061 -0.37162676 -0.16199774
1.061 -0.37335819 -0.16199774
1.061 -0.37508962 -0.16199774
1.0650001 -0.37824169 -0.16260849
1.0650001 -0.37997964 -0.16260849
1.0650001 -0.38171762 -0.16260849
1.066 -0.38381559 -0.16276115
1.066 -0.38555518 -0.16276115
1.068 -0.38802138 -0.16306652
1.068 -0.38976425 -0.16306652
1.068 -0.39150709 -0.16306652
1.068 -0.39324993 -0.16306652
1.068 -0.3949928 -0.16306652
1.068 -0.39673564 -0.16306652
1.068 -0.39847851 -0.16306652
1.068 -0.40022135 -0.16306652
1.068 -0.40196419 -0.16306652
1.066 -0.40295106 -0.16276115
1.066 -0.40469065 -0.16276115
1.066 -0.40643021 -0.16276115
1.066 -0.40816981 -0.16276115
1.0650001 -0.40952489 -0.16260849
1.0650001 -0.41126284 -0.16260849
1.063 -0.41222519 -0.1623031
1.063 -0.41395989 -0.1623031
1.061 -0.41491246 -0.16199774
1.061 -0.41664389 -0.16199774
1.061 -0.41837531 -0.16199774
1.059 -0.41931486 -0.16169237
1.059 -0.42104301 -0.16169237
1.059 -0.42277119 -0.16169237
1.059 -0.42449933 -0.16169237
1.063 -0.4278374 -0.1623031
1.063 -0.42957211 -0.1623031
1.063 -0.43130678 -0.1623031
1.0650001 -0.43385628 -0.16260849
1.0650001 -0.43559423 -0.16260849
1.068 -0.43856406 -0.16306652
1.074 -0.44278058 -0.16398263
1.074 -0.44453323 -0.16398263
1.0829999 -0.45002565 -0.16535679
1.041 -0.24740502 -0.16064283
1.043 -0.25128445 -0.16095147
1.043 -0.25298649 -0.16095147
1.043 -0.25468856 -0.16095147
1.043 -0.2563906 -0.16095147
1.041 -0.25759777 -0.16064283
1.041 -0.25929657 -0.16064283
1.041 -0.26099536 -0.16064283
1.039 -0.26218945 -0.1603342
1.039 -0.26388496 -0.1603342
1.039 -0.26558051 -0.1603342
1.039 -0.26727602 -0.1603342
1.039 -0.26897156 -0.1603342
1.038 -0.27040657 -0.16017988
1.038 -0.27210045 -0.16017988
1.038 -0.27379435 -0.16017988
1.038 -0.27548826 -0.16017988
1.038 -0.27718213 -0.16017988
1.038 -0.27887604 -0.16017988
1.039 -0.28084025 -0.1603342
1.041 -0.28307962 -0.16064283
1.041 -0.28477842 -0.16064283
1.041 -0.28647721 -0.16064283
1.041 -0.288176 -0.16064283
1.041 -0.28987479 -0.16064283
1.041 -0.29157358 -0.16064283
1.041 -0.29327238 -0.16064283
1.043 -0.29553786 -0.16095147
1.043 -0.2972399 -0.16095147
1.043 -0.29894197 -0.16095147
1.045 -0.30122051 -0.16126008
1.045 -0.30292583 -0.16126008
1.046 -0.30492267 -0.16141441
1.046 -0.30662963 -0.16141441
1.046 -0.30833656 -0.16141441
1.048 -0.31063634 -0.16172303
1.05 -0.31294262 -0.16203167
1.05 -0.31465608 -0.16203167
1.052 -0.3169722 -0.16234031
1.052 -0.31868896 -0.16234031
1.052 -0.32040569 -0.16234031
1.054 -0.32273483 -0.16264895
1.054 -0.32445481 -0.16264895
1.054 -0.32617483 -0.16264895
1.054 -0.32789484 -0.16264895
1.052 -0.32898939 -0.16234031
1.052 -0.33070612 -0.16234031
1.054 -0.33305484 -0.16264895
1.054 -0.33477485 -0.16264895
1.054 -0.33649486 -0.16264895
1.054 -0.33821487 -0.16264895
1.054 -0.33993486 -0.16264895
1.054 -0.34165487 -0.16264895
1.054 -0.34337488 -0.16264895
1.054 -0.34509489 -0.16264895
1.054 -0.3468149 -0.16264895
1.054 -0.34853488 -0.16264895
1.054 -0.35025489 -0.16264895
1.054 -0.3519749 -0.16264895
1.0549999 -0.35403046 -0.16280325
1.0549999 -0.35575208 -0.16280325
1.0549999 -0.35747373 -0.16280325
1.057 -0.35987633 -0.1631119
1.057 -0.36160123 -0.1631119
1.057 -0.36332613 -0.1631119
1.059 -0.36574176 -0.16342051
1.059 -0.36746994 -0.16342051
1.061 -0.36989534 -0.16372915
1.063 -0.37232727 -0.16403778
1.063 -0.37406197 -0.16403778
1.0650001 -0.37650374 -0.16434643
1.066 -0.37859684 -0.16450073
1.066 -0.3803364 -0.16450073
1.068 -0.38279283 -0.16480936
1.068 -0.3845357 -0.16480936
1.068 -0.38627854 -0.16480936
1.072 -0.38947469 -0.16542663
1.072 -0.39122406 -0.16542663
1.072 -0.39297342 -0.16542663
1.072 -0.39472282 -0.16542663
1.072 -0.39647219 -0.16542663
1.074 -0.39896452 -0.16573526
1.074 -0.40071717 -0.16573526
1.072 -0.40172032 -0.16542663
1.072 -0.40346971 -0.16542663
1.072 -0.40521908 -0.16542663
1.0700001 -0.4062092 -0.16511799
1.0700001 -0.40795532 -0.16511799
1.0700001 -0.40970144 -0.16511799
1.068 -0.41067845 -0.16480936
1.068 -0.41242132 -0.16480936
1.066 -0.41338858 -0.16450073
1.066 -0.41512817 -0.16450073
1.0650001 -0.41647673 -0.16434643
1.0650001 -0.41821468 -0.16434643
1.066 -0.42034692 -0.16450073
1.066 -0.42208651 -0.16450073
1.0700001 -0.42541647 -0.16511799
1.072 -0.42796102 -0.16542663
1.072 -0.42971039 -0.16542663
1.072 -0.43145975 -0.16542663
1.072 -0.43320915 -0.16542663
1.072 -0.43495852 -0.16542663
1.076 -0.43833739 -0.16604388
1.076 -0.44009331 -0.16604388
1.081 -0.4439024 -0.16681546
1.029 -0.22944023 -0.16047023
1.029 -0.23111944 -0.16047023
1.034 -0.23392983 -0.16124998
1.036 -0.23607293 -0.16156186
1.036 -0.23776357 -0.16156186
1.039 -0.24014761 -0.16202971
1.041 -0.24230865 -0.16234161
1.041 -0.24400744 -0.16234161
1.041 -0.24570623 -0.16234161
1.041 -0.24740502 -0.16234161
1.043 -0.24958239 -0.16265349
1.043 -0.25128445 -0.16265349
1.043 -0.25298649 -0.16265349
1.041 -0.25420019 -0.16234161
1.041 -0.25589898 -0.16234161
1.041 -0.25759777 -0.16234161
1.041 -0.25929657 -0.16234161
1.041 -0.26099536 -0.16234161
1.039 -0.26218945 -0.16202971
1.039 -0.26388496 -0.16202971
1.038 -0.26532489 -0.16187376
1.038 -0.26701877 -0.16187376
1.038 -0.26871267 -0.16187376
1.038 -0.27040657 -0.16187376
1.038 -0.27210045 -0.16187376
1.038 -0.27379435 -0.16187376
1.038 -0.27548826 -0.16187376
1.038 -0.27718213 -0.16187376
1.038 -0.27887604 -0.16187376
1.039 -0.28084025 -0.16202971
1.039 -0.28253576 -0.16202971
1.039 -0.28423131 -0.16202971
1.041 -0.28647721 -0.16234161
1.041 -0.288176 -0.16234161
1.041 -0.28987479 -0.16234161
1.041 -0.29157358 -0.16234161
1.041 -0.29327238 -0.16234161
1.043 -0.29553786 -0.16265349
1.043 -0.2972399 -0.16265349
1.043 -0.29894197 -0.16265349
1.045 -0.30122051 -0.16296539
1.045 -0.30292583 -0.16296539
1.046 -0.30492267 -0.16312134
1.046 -0.30662963 -0.16312134
1.046 -0.30833656 -0.16312134
1.048 -0.31063634 -0.16343324
1.05 -0.31294262 -0.16374512
1.05 -0.31465608 -0.16374512
1.052 -0.3169722 -0.16405703
1.052 -0.31868896 -0.16405703
1.052 -0.32040569 -0.16405703
1.054 -0.32273483 -0.16436893
1.054 -0.32445481 -0.16436893
1.054 -0.32617483 -0.16436893
1.054 -0.32789484 -0.16436893
1.052 -0.32898939 -0.16405703
1.052 -0.33070612 -0.16405703
1.054 -0.33305484 -0.16436893
1.054 -0.33477485 -0.16436893
1.054 -0.33649486 -0.16436893
1.054 -0.33821487 -0.16436893
1.054 -0.33993486 -0.16436893
1.054 -0.34165487 -0.16436893
1.054 -0.34337488 -0.16436893
1.054 -0.34509489 -0.16436893
1.054 -0.3468149 -0.16436893
1.054 -0.34853488 -0.16436893
1.054 -0.35025489 -0.16436893
1.054 -0.3519749 -0.16436893
1.0549999 -0.35403046 -0.16452487
1.0549999 -0.35575208 -0.16452487
1.0549999 -0.35747373 -0.16452487
1.057 -0.35987633 -0.16483678
1.057 -0.36160123 -0.16483678
1.057 -0.36332613 -0.16483678
1.059 -0.36574176 -0.16514866
1.059 -0.36746994 -0.16514866
1.061 -0.36989534 -0.16546056
1.0650001 -0.37302783 -0.16608436
1.0650001 -0.37476578 -0.16608436
1.066 -0.37685725 -0.16624029
1.0700001 -0.38001749 -0.1668641
1.0700001 -0.38176361 -0.1668641
1.0700001 -0.3835097 -0.1668641
1.072 -0.38597593 -0.16717599
1.072 -0.38772529 -0.16717599
1.074 -0.3902013 -0.16748787
1.074 -0.39195395 -0.16748787
1.074 -0.39370659 -0.16748787
1.074 -0.39545923 -0.16748787
1.074 -0.39721188 -0.16748787
1.074 -0.39896452 -0.16748787
1.074 -0.40071717 -0.16748787
1.074 -0.40246978 -0.16748787
1.074 -0.40422243 -0.16748787
1.074 -0.40597507 -0.16748787
1.072 -0.40696847 -0.16717599
1.072 -0.40871784 -0.16717599
1.072 -0.41046721 -0.16717599
1.076 -0.4137547 -0.16779977
1.0779999 -0.41628292 -0.16811167
1.0779999 -0.41804209 -0.16811167
1.079 -0.42019072 -0.16826762
1.079 -0.4219515 -0.16826762
1.081 -0.42449769 -0.1685795
1.089 -0.42941633 -0.16982709
1.089 -0.43119344 -0.16982709
1.099 -0.43694642 -0.17138657
1.099 -0.43873987 -0.17138657
1.099 -0.44053331 -0.17138657
1.027 -0.21726266 -0.16183425
1.029 -0.21936499 -0.16214943
1.0319999 -0.22168861 -0.16262215
1.0319999 -0.22337271 -0.16262215
1.036 -0.22592916 -0.16325249
1.036 -0.22761978 -0.16325249
1.036 -0.22931041 -0.16325249
1.038 -0.23144698 -0.16356763
1.038 -0.23314089 -0.16356763
1.039 -0.23506102 -0.16372523
1.041 -0.23721229 -0.16404039
1.041 -0.23891108 -0.16404039
1.041 -0.2525014 -0.16404039
1.041 -0.25420019 -0.16404039
1.041 -0.25589898 -0.16404039
1.041 -0.25759777 -0.16404039
1.041 -0.25929657 -0.16404039
1.039 -0.26049393 -0.16372523
1.038 -0.26193708 -0.16356763
1.038 -0.26363099 -0.16356763
1.038 -0.26532489 -0.16356763
1.038 -0.26701877 -0.16356763
1.038 -0.26871267 -0.16356763
1.038 -0.27040657 -0.16356763
1.038 -0.27210045 -0.16356763
1.038 -0.27379435 -0.16356763
1.038 -0.27548826 -0.16356763
1.038 -0.27718213 -0.16356763
1.038 -0.27887604 -0.16356763
1.038 -0.28056994 -0.16356763
1.039 -0.28253576 -0.16372523
1.039 -0.28423131 -0.16372523
1.039 -0.28592682 -0.16372523
1.039 -0.28762233 -0.16372523
1.041 -0.28987479 -0.16404039
1.041 -0.29157358 -0.16404039
1.041 -0.29327238 -0.16404039
1.043 -0.29553786 -0.16435553
1.043 -0.2972399 -0.16435553
1.043 -0.29894197 -0.16435553
1.045 -0.30122051 -0.16467069
1.045 -0.30292583 -0.16467069
1.046 -0.30492267 -0.16482827
1.048 -0.3072159 -0.16514343
1.048 -0.30892611 -0.16514343
1.05 -0.31122914 -0.16545859
1.05 -0.31294262 -0.16545859
1.05 -0.31465608 -0.16545859
1.052 -0.3169722 -0.16577376
1.054 -0.31929481 -0.16608892
1.054 -0.32101482 -0.16608892
1.054 -0.32273483 -0.16608892
1.054 -0.32445481 -0.16608892
1.054 -0.32617483 -0.16608892
1.054 -0.32789484 -0.16608892
1.054 -0.32961485 -0.16608892
1.054 -0.33133483 -0.16608892
1.054 -0.33305484 -0.16608892
1.054 -0.33477485 -0.16608892
1.0549999 -0.33681408 -0.16624649
1.0549999 -0.33853573 -0.16624649
1.054 -0.33993486 -0.16608892
1.054 -0.34165487 -0.16608892
1.054 -0.34337488 -0.16608892
1.054 -0.34509489 -0.16608892
1.054 -0.3468149 -0.16608892
1.054 -0.34853488 -0.16608892
1.0549999 -0.35058719 -0.16624649
1.0549999 -0.35230881 -0.16624649
1.0549999 -0.35403046 -0.16624649
1.057 -0.35642654 -0.16656166
1.057 -0.35815144 -0.16656166
1.059 -0.36055726 -0.16687681
1.059 -0.36228544 -0.16687681
1.059 -0.36401358 -0.16687681
1.061 -0.36643249 -0.16719197
1.061 -0.36816391 -0.16719197
1.063 -0.37059259 -0.16750713
1.0650001 -0.37302783 -0.1678223
1.0650001 -0.37476578 -0.1678223
1.066 -0.37685725 -0.16797987
1.0700001 -0.38001749 -0.1686102
1.0700001 -0.38176361 -0.1686102
1.0700001 -0.3835097 -0.1686102
1.072 -0.38597593 -0.16892534
1.072 -0.38772529 -0.16892534
1.074 -0.3902013 -0.1692405
1.074 -0.39195395 -0.1692405
1.074 -0.39370659 -0.1692405
1.074 -0.39545923 -0.1692405
1.074 -0.39721188 -0.1692405
1.074 -0.39896452 -0.1692405
1.074 -0.40071717 -0.1692405
1.074 -0.40246978 -0.1692405
1.074 -0.40422243 -0.1692405
1.074 -0.40597507 -0.1692405
1.072 -0.40696847 -0.16892534
1.072 -0.40871784 -0.16892534
1.072 -0.41046721 -0.16892534
1.076 -0.4137547 -0.16955566
1.0779999 -0.41628292 -0.16987082
1.0779999 -0.41804209 -0.16987082
1.079 -0.42019072 -0.1700284
1.079 -0.4219515 -0.1700284
1.081 -0.42449769 -0.17034356
1.089 -0.42941633 -0.1716042
1.089 -0.43119344 -0.1716042
1.041 -0.2525014 -0.16573915
1.041 -0.25420019 -0.16573915
1.041 -0.25589898 -0.16573915
1.041 -0.25759777 -0.16573915
1.041 -0.25929657 -0.16573915
1.039 -0.26049393 -0.16542074
1.038 -0.26193708 -0.16526152
1.038 -0.26363099 -0.16526152
1.038 -0.26532489 -0.16526152
1.038 -0.26701877 -0.16526152
1.038 -0.26871267 -0.16526152
1.038 -0.27040657 -0.16526152
1.038 -0.27210045 -0.16526152
1.038 -0.27379435 -0.16526152
1.038 -0.27548826 -0.16526152
1.038 -0.27718213 -0.16526152
1.038 -0.27887604 -0.16526152
1.038 -0.28056994 -0.16526152
1.039 -0.28253576 -0.16542074
1.039 -0.28423131 -0.16542074
1.039 -0.28592682 -0.16542074
1.039 -0.28762233 -0.16542074
1.041 -0.28987479 -0.16573915
1.043 -0.29213375 -0.16605757
1.043 -0.29383579 -0.16605757
1.043 -0.29553786 -0.16605757
1.045 -0.29780987 -0.16637599
1.045 -0.29951519 -0.16637599
1.046 -0.30150875 -0.16653521
1.046 -0.30321571 -0.16653521
1.046 -0.30492267 -0.16653521
1.05 -0.30780217 -0.16717204
1.05 -0.30951566 -0.16717204
1.05 -0.31122914 -0.16717204
1.052 -0.31353873 -0.16749048
1.052 -0.31525546 -0.16749048
1.052 -0.3169722 -0.16749048
1.054 -0.31929481 -0.16780891
1.054 -0.32101482 -0.16780891
1.0549999 -0.32304099 -0.16796811
1.0549999 -0.32476264 -0.16796811
1.0549999 -0.32648426 -0.16796811
1.0549999 -0.32820591 -0.16796811
1.0549999 -0.32992753 -0.16796811
1.0549999 -0.33164918 -0.16796811
1.057 -0.33400282 -0.16828655
1.057 -0.33572772 -0.16828655
1.057 -0.33745262 -0.16828655
1.057 -0.33917752 -0.16828655
1.057 -0.34090242 -0.16828655
1.057 -0.34262735 -0.16828655
1.057 -0.34435225 -0.16828655
1.057 -0.34607714 -0.16828655
1.057 -0.34780204 -0.16828655
1.057 -0.34952694 -0.16828655
1.057 -0.35125184 -0.16828655
1.057 -0.35297674 -0.16828655
1.059 -0.35537279 -0.16860496
1.061 -0.35777533 -0.16892338
1.059 -0.35882911 -0.16860496
1.059 -0.36055726 -0.16860496
1.061 -0.36296964 -0.16892338
1.061 -0.36470106 -0.16892338
1.063 -0.36712322 -0.1692418
1.063 -0.36885789 -0.1692418
1.0650001 -0.37128988 -0.16956024
1.066 -0.37337807 -0.16971944
1.066 -0.37511766 -0.16971944
1.068 -0.37756428 -0.17003785
1.072 -0.3807278 -0.17067471
1.072 -0.38247716 -0.17067471
1.072 -0.38422653 -0.17067471
1.074 -0.38669601 -0.17099313
1.074 -0.38844866 -0.17099313
1.074 -0.3902013 -0.17099313
1.074 -0.39195395 -0.17099313
1.076 -0.39443973 -0.17131156
1.0779999 -0.39693207 -0.17162997
1.0779999 -0.39869124 -0.17162997
1.076 -0.39970747 -0.17131156
1.076 -0.40146336 -0.17131156
1.076 -0.40321925 -0.17131156
1.076 -0.40497518 -0.17131156
1.076 -0.40673107 -0.17131156
1.076 -0.40848699 -0.17131156
1.076 -0.41024289 -0.17131156
1.076 -0.41199881 -0.17131156
1.0779999 -0.41452375 -0.17162997
1.081 -0.41744143 -0.17210761
1.081 -0.41920549 -0.17210761
1.089 -0.42408496 -0.1733813
1 -0.18870443 -0.16084334
1.005 -0.19128799 -0.16164756
1.0089999 -0.1936959 -0.16229093
1.0089999 -0.19534247 -0.16229093
1.041 -0.24740502 -0.16743793
1.041 -0.24910381 -0.16743793
1.041 -0.25080261 -0.16743793
1.041 -0.2525014 -0.16743793
1.041 -0.25420019 -0.16743793
1.041 -0.25589898 -0.16743793
1.039 -0.25710288 -0.16711624
1.039 -0.25879839 -0.16711624
1.039 -0.26049393 -0.16711624
1.038 -0.26193708 -0.1669554
1.038 -0.26363099 -0.1669554
1.038 -0.26532489 -0.1669554
1.038 -0.26701877 -0.1669554
1.038 -0.26871267 -0.1669554
1.038 -0.27040657 -0.1669554
1.038 -0.27210045 -0.1669554
1.038 -0.27379435 -0.1669554
1.038 -0.27548826 -0.1669554
1.038 -0.27718213 -0.1669554
1.038 -0.27887604 -0.1669554
1.038 -0.28056994 -0.1669554
1.039 -0.28253576 -0.16711624
1.039 -0.28423131 -0.16711624
1.039 -0.28592682 -0.16711624
1.039 -0.28762233 -0.16711624
1.041 -0.28987479 -0.16743793
1.041 -0.29157358 -0.16743793
1.041 -0.29327238 -0.16743793
1.043 -0.29553786 -0.16775961
1.045 -0.29780987 -0.1680813
1.045 -0.29951519 -0.1680813
1.046 -0.30150875 -0.16824214
1.046 -0.30321571 -0.16824214
1.046 -0.30492267 -0.16824214
1.048 -0.3072159 -0.16856383
1.048 -0.30892611 -0.16856383
1.05 -0.31122914 -0.16888551
1.052 -0.31353873 -0.16920722
1.052 -0.31525546 -0.16920722
1.052 -0.3169722 -0.16920722
1.054 -0.31929481 -0.16952889
1.054 -0.32101482 -0.16952889
1.0549999 -0.32304099 -0.16968973
1.0549999 -0.32476264 -0.16968973
1.0549999 -0.32648426 -0.16968973
1.0549999 -0.32820591 -0.16968973
1.0549999 -0.32992753 -0.16968973
1.0549999 -0.33164918 -0.16968973
1.057 -0.33400282 -0.17001143
1.057 -0.33572772 -0.17001143
1.057 -0.33745262 -0.17001143
1.057 -0.33917752 -0.17001143
1.057 -0.34090242 -0.17001143
1.057 -0.34262735 -0.17001143
1.057 -0.34435225 -0.17001143
1.057 -0.34607714 -0.17001143
1.057 -0.34780204 -0.17001143
1.057 -0.34952694 -0.17001143
1.057 -0.35125184 -0.17001143
1.057 -0.35297674 -0.17001143
1.059 -0.35537279 -0.1703331
1.059 -0.35710093 -0.1703331
1.059 -0.35882911 -0.1703331
1.059 -0.36055726 -0.1703331
1.061 -0.36296964 -0.17065479
1.061 -0.36470106 -0.17065479
1.063 -0.36712322 -0.17097647
1.063 -0.36885789 -0.17097647
1.0650001 -0.37128988 -0.17129818
1.066 -0.37337807 -0.171459
1.066 -0.37511766 -0.171459
1.068 -0.37756428 -0.17178069
1.072 -0.3807278 -0.17242408
1.072 -0.38247716 -0.17242408
1.072 -0.38422653 -0.17242408
1.074 -0.38669601 -0.17274576
