# .PCD v0.7 - Point Cloud Data file format
VERSION 0.7
FIELDS x y z
SIZE 4 4 4
TYPE F F F
COUNT 1 1 1
WIDTH 1562
HEIGHT 1
VIEWPOINT 0 0 0 1 0 0 0
POINTS 1562
DATA ascii
1.061 -0.23830682 -0.24337405
1.063 -0.2404907 -0.24383281
1.063 -0.24222541 -0.24383281
1.063 -0.2439601 -0.24383281
1.0650001 -0.24615708 -0.24429159
1.068 -0.2485933 -0.24497972
1.068 -0.25033614 -0.24497972
1.068 -0.25207901 -0.24497972
1.068 -0.25382185 -0.24497972
1.0700001 -0.25604331 -0.2454385
1.0700001 -0.25778943 -0.2454385
1.0700001 -0.25953555 -0.2454385
1.072 -0.26177004 -0.24589726
1.072 -0.26351941 -0.24589726
1.072 -0.2652688 -0.24589726
1.072 -0.26701817 -0.24589726
1.072 -0.26876754 -0.24589726
1.072 -0.27051693 -0.24589726
1.072 -0.2722663 -0.24589726
1.072 -0.27401569 -0.24589726
1.0779999 -0.27730849 -0.24727353
1.081 -0.27984431 -0.24796169
1.081 -0.28160837 -0.24796169
1.087 -0.28494528 -0.24933799
1.091 -0.28777421 -0.2502555
1.091 -0.2895546 -0.2502555
1.095 -0.29240313 -0.25117305
1.095 -0.29419005 -0.25117305
1.095 -0.29597697 -0.25117305
1.099 -0.29885158 -0.25209054
1.099 -0.30064502 -0.25209054
1.012 -0.037382577 -0.23378579
1.012 -0.039034043 -0.23378579
1.012 -0.040685508 -0.23378579
1.027 -0.063075826 -0.23725098
1.027 -0.064751767 -0.23725098
1.027 -0.066427708 -0.23725098
1.027 -0.068103656 -0.23725098
1.029 -0.069915496 -0.23771304
1.029 -0.0715947 -0.23771304
1.029 -0.073273912 -0.23771304
1.029 -0.074953116 -0.23771304
1.029 -0.076632328 -0.23771304
1.029 -0.078311533 -0.23771304
1.029 -0.079990737 -0.23771304
1.029 -0.081669949 -0.23771304
1.029 -0.083349153 -0.23771304
1.031 -0.085193627 -0.23817506
1.031 -0.086876094 -0.23817506
1.031 -0.08855857 -0.23817506
1.031 -0.090241037 -0.23817506
1.031 -0.091923513 -0.23817506
1.031 -0.09360598 -0.23817506
1.031 -0.095288455 -0.23817506
1.0319999 -0.097064972 -0.23840606
1.0319999 -0.098749079 -0.23840606
1.0319999 -0.10043318 -0.23840606
1.034 -0.10231519 -0.2388681
1.034 -0.10400257 -0.2388681
1.034 -0.10568993 -0.2388681
1.036 -0.10758499 -0.23933013
1.036 -0.10927562 -0.23933013
1.036 -0.11096625 -0.23933013
1.038 -0.11287436 -0.23979215
1.038 -0.11456826 -0.23979215
1.038 -0.11626215 -0.23979215
1.038 -0.11795604 -0.23979215
1.038 -0.11964994 -0.23979215
1.038 -0.12134384 -0.23979215
1.036 -0.12280066 -0.23933013
1.036 -0.1244913 -0.23933013
1.036 -0.12618193 -0.23933013
1.036 -0.12787256 -0.23933013
1.036 -0.12956318 -0.23933013
1.036 -0.13125382 -0.23933013
1.036 -0.13294445 -0.23933013
1.038 -0.134895 -0.23979215
1.038 -0.13658889 -0.23979215
1.038 -0.13828278 -0.23979215
1.038 -0.13997668 -0.23979215
1.038 -0.14167057 -0.23979215
1.038 -0.14336446 -0.23979215
1.038 -0.14505836 -0.23979215
1.038 -0.14675225 -0.23979215
1.039 -0.14858916 -0.24002318
1.041 -0.15057398 -0.24048519
1.041 -0.15227276 -0.24048519
1.041 -0.15397155 -0.24048519
1.041 -0.15567034 -0.24048519
1.041 -0.15736914 -0.24048519
1.043 -0.15937354 -0.24094722
1.043 -0.16107558 -0.24094722
1.041 -0.16246551 -0.24048519
1.041 -0.1641643 -0.24048519
1.041 -0.1658631 -0.24048519
1.041 -0.16756187 -0.24048519
1.041 -0.16926067 -0.24048519
1.041 -0.17095946 -0.24048519
1.041 -0.17265825 -0.24048519
1.041 -0.17435704 -0.24048519
1.041 -0.17605583 -0.24048519
1.041 -0.17775463 -0.24048519
1.041 -0.17945342 -0.24048519
1.041 -0.18115221 -0.24048519
1.041 -0.18285099 -0.24048519
1.041 -0.18454978 -0.24048519
1.041 -0.18624857 -0.24048519
1.041 -0.18794736 -0.24048519
1.041 -0.18964615 -0.24048519
1.041 -0.19134495 -0.24048519
1.041 -0.19304374 -0.24048519
1.043 -0.19511667 -0.24094722
1.043 -0.19681872 -0.24094722
1.043 -0.19852078 -0.24094722
1.043 -0.20022282 -0.24094722
1.043 -0.20192488 -0.24094722
1.045 -0.2040174 -0.24140924
1.045 -0.2057227 -0.24140924
1.045 -0.20742802 -0.24140924
1.048 -0.20973374 -0.24210228
1.048 -0.21144395 -0.24210228
1.048 -0.21315417 -0.24210228
1.05 -0.21527441 -0.24256431
1.05 -0.21698789 -0.24256431
1.05 -0.21870138 -0.24256431
1.052 -0.2208347 -0.24302636
1.052 -0.22255145 -0.24302636
1.054 -0.22469455 -0.24348837
1.0549999 -0.22662935 -0.24371937
1.0549999 -0.22835098 -0.24371937
1.057 -0.2305088 -0.24418142
1.057 -0.2322337 -0.24418142
1.059 -0.23440129 -0.24464343
1.061 -0.23657538 -0.24510546
1.061 -0.23830682 -0.24510546
1.063 -0.2404907 -0.24556749
1.063 -0.24222541 -0.24556749
1.063 -0.2439601 -0.24556749
1.0650001 -0.24615708 -0.24602954
1.068 -0.2485933 -0.24672255
1.068 -0.25033614 -0.24672255
1.068 -0.25207901 -0.24672255
1.068 -0.25382185 -0.24672255
1.0700001 -0.25604331 -0.2471846
1.0700001 -0.25778943 -0.2471846
1.0700001 -0.25953555 -0.2471846
1.072 -0.26177004 -0.24764661
1.072 -0.26351941 -0.24764661
1.072 -0.2652688 -0.24764661
1.072 -0.26701817 -0.24764661
1.072 -0.26876754 -0.24764661
1.072 -0.27051693 -0.24764661
1.072 -0.2722663 -0.24764661
1.072 -0.27401569 -0.24764661
1.0779999 -0.27730849 -0.24903269
1.081 -0.27984431 -0.24972573
1.081 -0.28160837 -0.24972573
1.087 -0.28494528 -0.25111184
1.091 -0.28777421 -0.25203586
1.091 -0.2895546 -0.25203586
1.095 -0.29240313 -0.25295994
1.095 -0.29419005 -0.25295994
1.095 -0.29597697 -0.25295994
1.099 -0.29885158 -0.25388399
1.099 -0.30064502 -0.25388399
1.015 0.00060291553 -0.23613518
1.015 -0.0010534457 -0.23613518
1.031 -0.063321494 -0.23985751
1.031 -0.065003969 -0.23985751
1.031 -0.066686437 -0.23985751
1.031 -0.068368912 -0.23985751
1.0319999 -0.070119321 -0.24009015
1.0319999 -0.071803428 -0.24009015
1.0319999 -0.073487528 -0.24009015
1.0319999 -0.075171635 -0.24009015
1.034 -0.077004686 -0.24055545
1.034 -0.078692056 -0.24055545
1.034 -0.080379419 -0.24055545
1.034 -0.082066789 -0.24055545
1.034 -0.08375416 -0.24055545
1.034 -0.085441522 -0.24055545
1.034 -0.087128893 -0.24055545
1.036 -0.088988051 -0.24102074
1.036 -0.090678677 -0.24102074
1.036 -0.092369311 -0.24102074
1.036 -0.094059937 -0.24102074
1.036 -0.09575057 -0.24102074
1.038 -0.097629309 -0.24148603
1.038 -0.099323206 -0.24148603
1.038 -0.1010171 -0.24148603
1.039 -0.10280995 -0.24171868
1.041 -0.10470664 -0.24218397
1.041 -0.10640543 -0.24218397
1.041 -0.10810422 -0.24218397
1.041 -0.10980301 -0.24218397
1.041 -0.1115018 -0.24218397
1.041 -0.11320059 -0.24218397
1.041 -0.11489938 -0.24218397
1.041 -0.11659817 -0.24218397
1.043 -0.11852423 -0.24264926
1.041 -0.11999575 -0.24218397
1.041 -0.12169454 -0.24218397
1.043 -0.1236304 -0.24264926
1.041 -0.12509212 -0.24218397
1.041 -0.12679091 -0.24218397
1.041 -0.1284897 -0.24218397
1.041 -0.13018849 -0.24218397
1.041 -0.13188729 -0.24218397
1.041 -0.13358608 -0.24218397
1.041 -0.13528487 -0.24218397
1.041 -0.13698365 -0.24218397
1.041 -0.13868244 -0.24218397
1.043 -0.14065094 -0.24264926
1.043 -0.14235298 -0.24264926
1.043 -0.14405504 -0.24264926
1.043 -0.14575709 -0.24264926
1.043 -0.14745915 -0.24264926
1.046 -0.14959024 -0.2433472
1.046 -0.1512972 -0.2433472
1.046 -0.15300414 -0.2433472
1.046 -0.1547111 -0.2433472
1.046 -0.15641804 -0.2433472
1.046 -0.158125 -0.2433472
1.048 -0.16013755 -0.24381249
1.048 -0.16184776 -0.24381249
1.046 -0.16324584 -0.2433472
1.046 -0.16495278 -0.2433472
1.045 -0.1665004 -0.24311455
1.045 -0.16820572 -0.24311455
1.045 -0.16991104 -0.24311455
1.043 -0.17128791 -0.24264926
1.043 -0.17298996 -0.24264926
1.043 -0.17469202 -0.24264926
1.043 -0.17639408 -0.24264926
1.045 -0.17843762 -0.24311455
1.045 -0.18014294 -0.24311455
1.045 -0.18184826 -0.24311455
1.045 -0.18355358 -0.24311455
1.043 -0.18490434 -0.24264926
1.043 -0.18660639 -0.24264926
1.043 -0.18830845 -0.24264926
1.043 -0.1900105 -0.24264926
1.043 -0.19171256 -0.24264926
1.043 -0.19341461 -0.24264926
1.045 -0.19549081 -0.24311455
1.045 -0.19719613 -0.24311455
1.045 -0.19890144 -0.24311455
1.045 -0.20060676 -0.24311455
1.045 -0.20231208 -0.24311455
1.046 -0.20421264 -0.2433472
1.05 -0.20670703 -0.24427776
1.05 -0.2084205 -0.24427776
1.05 -0.21013398 -0.24427776
1.054 -0.21265452 -0.24520837
1.054 -0.21437451 -0.24520837
1.0549999 -0.21629953 -0.24544099
1.0549999 -0.21802117 -0.24544099
1.057 -0.2201594 -0.24590631
1.057 -0.2218843 -0.24590631
1.057 -0.22360919 -0.24590631
1.059 -0.22576046 -0.24637158
1.061 -0.22791825 -0.24683687
1.061 -0.22964968 -0.24683687
1.063 -0.23181726 -0.24730216
1.063 -0.23355195 -0.24730216
1.0650001 -0.23572934 -0.24776748
1.066 -0.23769026 -0.2480001
1.066 -0.23942985 -0.2480001
1.068 -0.2416219 -0.24846539
1.0700001 -0.24382052 -0.24893069
1.0700001 -0.24556662 -0.24893069
1.072 -0.247775 -0.24939598
1.074 -0.24998991 -0.24986127
1.074 -0.25174254 -0.24986127
1.0779999 -0.25443929 -0.25079185
1.0779999 -0.25619847 -0.25079185
1.0779999 -0.25795764 -0.25079185
1.081 -0.26043957 -0.25148979
1.081 -0.26220363 -0.25148979
1.081 -0.26396772 -0.25148979
1.081 -0.26573178 -0.25148979
1.081 -0.26749584 -0.25148979
1.081 -0.2692599 -0.25148979
1.081 -0.27102399 -0.25148979
1.081 -0.27278805 -0.25148979
1.081 -0.27455211 -0.25148979
1.081 -0.27631617 -0.25148979
1.085 -0.27910924 -0.25242037
1.099 -0.28450406 -0.2556774
1.099 -0.2862975 -0.2556774
1.0319999 0.01408584 -0.24177423
1.027 0.01234165 -0.24060285
1.027 0.010665706 -0.24060285
1.024 0.0089635029 -0.23990004
1.022 0.0072782114 -0.23943146
1.022 0.0056104269 -0.23943146
1.0190001 0.0039310693 -0.23872866
1.015 0.0022592768 -0.23779152
1.015 0.00060291553 -0.23779152
1.015 -0.0010534457 -0.23779152
1.0089999 -0.010926638 -0.23638585
1.0089999 -0.012573208 -0.23638585
1.0089999 -0.014219778 -0.23638585
1.0089999 -0.017512918 -0.23638585
1.0089999 -0.019159488 -0.23638585
1.0089999 -0.020806057 -0.23638585
1.0089999 -0.022452628 -0.23638585
1.007 -0.02405143 -0.2359173
1.007 -0.025694735 -0.2359173
1.007 -0.027338043 -0.2359173
1.007 -0.028981348 -0.2359173
1.007 -0.030624654 -0.2359173
1.01 -0.032364093 -0.23662014
1.012 -0.034079645 -0.2370887
1.012 -0.035731111 -0.2370887
1.012 -0.037382577 -0.2370887
1.015 -0.039149757 -0.23779152
1.015 -0.040806118 -0.23779152
1.0190001 -0.042629819 -0.23872866
1.02 -0.044336174 -0.23896292
1.02 -0.046000693 -0.23896292
1.022 -0.047758676 -0.23943146
1.022 -0.049426459 -0.23943146
1.025 -0.051244229 -0.2401343
1.027 -0.053020161 -0.24060285
1.027 -0.054696102 -0.24060285
1.029 -0.056481831 -0.24107142
1.031 -0.058274083 -0.24153997
1.031 -0.059956554 -0.24153997
1.0319999 -0.061698806 -0.24177423
1.031 -0.063321494 -0.24153997
1.031 -0.065003969 -0.24153997
1.031 -0.066686437 -0.24153997
1.031 -0.068368912 -0.24153997
1.0319999 -0.070119321 -0.24177423
1.0319999 -0.071803428 -0.24177423
1.0319999 -0.073487528 -0.24177423
1.0319999 -0.075171635 -0.24177423
1.034 -0.077004686 -0.24224281
1.034 -0.078692056 -0.24224281
1.034 -0.080379419 -0.24224281
1.034 -0.082066789 -0.24224281
1.034 -0.08375416 -0.24224281
1.034 -0.085441522 -0.24224281
1.034 -0.087128893 -0.24224281
1.036 -0.088988051 -0.24271135
1.036 -0.090678677 -0.24271135
1.036 -0.092369311 -0.24271135
1.036 -0.094059937 -0.24271135
1.036 -0.09575057 -0.24271135
1.038 -0.097629309 -0.2431799
1.038 -0.099323206 -0.2431799
1.038 -0.1010171 -0.2431799
1.039 -0.10280995 -0.24341419
1.041 -0.10470664 -0.24388275
1.041 -0.10640543 -0.24388275
1.041 -0.10810422 -0.24388275
1.041 -0.10980301 -0.24388275
1.041 -0.1115018 -0.24388275
1.041 -0.11320059 -0.24388275
1.041 -0.11489938 -0.24388275
1.041 -0.11659817 -0.24388275
1.043 -0.11852423 -0.2443513
1.041 -0.11999575 -0.24388275
1.041 -0.12169454 -0.24388275
1.043 -0.1236304 -0.2443513
1.041 -0.12509212 -0.24388275
1.041 -0.12679091 -0.24388275
1.041 -0.1284897 -0.24388275
1.041 -0.13018849 -0.24388275
1.041 -0.13188729 -0.24388275
1.041 -0.13358608 -0.24388275
1.041 -0.13528487 -0.24388275
1.041 -0.13698365 -0.24388275
1.041 -0.13868244 -0.24388275
1.043 -0.14065094 -0.2443513
1.043 -0.14235298 -0.2443513
1.043 -0.14405504 -0.2443513
1.043 -0.14575709 -0.2443513
1.043 -0.14745915 -0.2443513
1.046 -0.14959024 -0.24505413
1.046 -0.1512972 -0.24505413
1.046 -0.15300414 -0.24505413
1.046 -0.1547111 -0.24505413
1.046 -0.15641804 -0.24505413
1.046 -0.158125 -0.24505413
1.048 -0.16013755 -0.24552268
1.048 -0.16184776 -0.24552268
1.046 -0.16324584 -0.24505413
1.046 -0.16495278 -0.24505413
1.045 -0.1665004 -0.24481983
1.045 -0.16820572 -0.24481983
1.045 -0.16991104 -0.24481983
1.043 -0.17128791 -0.2443513
1.043 -0.17298996 -0.2443513
1.043 -0.17469202 -0.2443513
1.043 -0.17639408 -0.2443513
1.045 -0.17843762 -0.24481983
1.045 -0.18014294 -0.24481983
1.045 -0.18184826 -0.24481983
1.045 -0.18355358 -0.24481983
1.043 -0.18490434 -0.2443513
1.043 -0.18660639 -0.2443513
1.043 -0.18830845 -0.2443513
1.043 -0.1900105 -0.2443513
1.043 -0.19171256 -0.2443513
1.043 -0.19341461 -0.2443513
1.045 -0.19549081 -0.24481983
1.045 -0.19719613 -0.24481983
1.045 -0.19890144 -0.24481983
1.045 -0.20060676 -0.24481983
1.045 -0.20231208 -0.24481983
1.046 -0.20421264 -0.24505413
1.05 -0.20670703 -0.24599123
1.05 -0.2084205 -0.24599123
1.05 -0.21013398 -0.24599123
1.054 -0.21265452 -0.24692835
1.054 -0.21437451 -0.24692835
1.0549999 -0.21629953 -0.24716261
1.0549999 -0.21802117 -0.24716261
1.057 -0.2201594 -0.24763119
1.057 -0.2218843 -0.24763119
1.057 -0.22360919 -0.24763119
1.059 -0.22576046 -0.24809973
1.061 -0.22791825 -0.24856828
1.061 -0.22964968 -0.24856828
1.063 -0.23181726 -0.24903683
1.063 -0.23355195 -0.24903683
1.0650001 -0.23572934 -0.24950542
1.066 -0.23769026 -0.24973968
1.066 -0.23942985 -0.24973968
1.068 -0.2416219 -0.25020823
1.0700001 -0.24382052 -0.25067681
1.0700001 -0.24556662 -0.25067681
1.072 -0.247775 -0.25114533
1.074 -0.24998991 -0.25161389
1.074 -0.25174254 -0.25161389
1.0779999 -0.25443929 -0.25255099
1.0779999 -0.25619847 -0.25255099
1.0779999 -0.25795764 -0.25255099
1.081 -0.26043957 -0.25325382
1.081 -0.26220363 -0.25325382
1.081 -0.26396772 -0.25325382
1.081 -0.26573178 -0.25325382
1.081 -0.26749584 -0.25325382
1.081 -0.2692599 -0.25325382
1.081 -0.27102399 -0.25325382
1.081 -0.27278805 -0.25325382
1.081 -0.27455211 -0.25325382
1.081 -0.27631617 -0.25325382
1.085 -0.27910924 -0.25419095
1.099 -0.28450406 -0.25747082
1.099 -0.2862975 -0.25747082
1.025 0.0022815356 -0.24180695
1.025 0.00060885557 -0.24180695
1.022 -0.0010607109 -0.24109922
1.022 -0.0027284953 -0.24109922
1.022 -0.0043962798 -0.24109922
1.0140001 -0.0093260556 -0.23921198
1.0089999 -0.010926638 -0.2380324
1.0089999 -0.012573208 -0.2380324
1.0089999 -0.014219778 -0.2380324
1.012 -0.015913522 -0.23874013
1.0089999 -0.017512918 -0.2380324
1.0089999 -0.019159488 -0.2380324
1.0089999 -0.020806057 -0.2380324
1.0089999 -0.022452628 -0.2380324
1.007 -0.02405143 -0.2375606
1.007 -0.025694735 -0.2375606
1.007 -0.027338043 -0.2375606
1.007 -0.028981348 -0.2375606
1.007 -0.030624654 -0.2375606
1.01 -0.032364093 -0.23826833
1.012 -0.034079645 -0.23874013
1.012 -0.035731111 -0.23874013
1.012 -0.037382577 -0.23874013
1.015 -0.039149757 -0.23944788
1.015 -0.040806118 -0.23944788
1.0190001 -0.042629819 -0.24039152
1.02 -0.044336174 -0.24062742
1.02 -0.046000693 -0.24062742
1.022 -0.047758676 -0.24109922
1.022 -0.049426459 -0.24109922
1.025 -0.051244229 -0.24180695
1.027 -0.053020161 -0.24227877
1.027 -0.054696102 -0.24227877
1.029 -0.056481831 -0.24275061
1.031 -0.058274083 -0.24322243
1.031 -0.059956554 -0.24322243
1.0319999 -0.061698806 -0.24345832
1.0319999 -0.063382909 -0.24345832
1.034 -0.065193117 -0.24393016
1.036 -0.067009844 -0.24440198
1.036 -0.068700477 -0.24440198
1.036 -0.070391111 -0.24440198
1.036 -0.072081737 -0.24440198
1.036 -0.073772371 -0.24440198
1.038 -0.075608678 -0.24487378
1.038 -0.077302575 -0.24487378
1.038 -0.078996472 -0.24487378
1.038 -0.080690362 -0.24487378
1.038 -0.082384259 -0.24487378
1.039 -0.084159158 -0.24510971
1.039 -0.085854687 -0.24510971
1.039 -0.087550208 -0.24510971
1.039 -0.089245737 -0.24510971
1.041 -0.091116317 -0.24558152
1.041 -0.092815109 -0.24558152
1.043 -0.094695479 -0.24605332
1.043 -0.096397534 -0.24605332
1.043 -0.098099589 -0.24605332
1.045 -0.099993013 -0.24652514
1.045 -0.10169833 -0.24652514
1.045 -0.10340365 -0.24652514
1.046 -0.10520955 -0.24676107
1.046 -0.1069165 -0.24676107
1.048 -0.10883114 -0.24723287
1.048 -0.11054136 -0.24723287
1.046 -0.11203735 -0.24676107
1.046 -0.1137443 -0.24676107
1.046 -0.11545125 -0.24676107
1.046 -0.1171582 -0.24676107
1.046 -0.11886515 -0.24676107
1.046 -0.1205721 -0.24676107
1.045 -0.12216214 -0.24652514
1.045 -0.12386746 -0.24652514
1.045 -0.12557277 -0.24652514
1.045 -0.12727809 -0.24652514
1.045 -0.12898341 -0.24652514
1.045 -0.13068873 -0.24652514
1.045 -0.13239405 -0.24652514
1.045 -0.13409936 -0.24652514
1.043 -0.13554478 -0.24605332
1.043 -0.13724683 -0.24605332
1.043 -0.13894889 -0.24605332
1.046 -0.14105549 -0.24676107
1.046 -0.14276245 -0.24676107
1.046 -0.1444694 -0.24676107
1.046 -0.14617634 -0.24676107
1.046 -0.1478833 -0.24676107
1.048 -0.14987627 -0.24723287
1.048 -0.15158647 -0.24723287
1.048 -0.15329669 -0.24723287
1.048 -0.1550069 -0.24723287
1.048 -0.15671712 -0.24723287
1.048 -0.15842733 -0.24723287
1.048 -0.16013755 -0.24723287
1.048 -0.16184776 -0.24723287
1.046 -0.16324584 -0.24676107
1.046 -0.16495278 -0.24676107
1.045 -0.1665004 -0.24652514
1.045 -0.16820572 -0.24652514
1.045 -0.16991104 -0.24652514
1.045 -0.17161636 -0.24652514
1.045 -0.17332168 -0.24652514
1.045 -0.175027 -0.24652514
1.045 -0.17673232 -0.24652514
1.045 -0.17843762 -0.24652514
1.045 -0.18014294 -0.24652514
1.045 -0.18184826 -0.24652514
1.045 -0.18355358 -0.24652514
1.045 -0.1852589 -0.24652514
1.045 -0.18696421 -0.24652514
1.045 -0.18866953 -0.24652514
1.045 -0.19037485 -0.24652514
1.046 -0.19226399 -0.24676107
1.046 -0.19397093 -0.24676107
1.046 -0.19567789 -0.24676107
1.046 -0.19738483 -0.24676107
1.048 -0.19947246 -0.24723287
1.048 -0.20118266 -0.24723287
1.048 -0.20289288 -0.24723287
1.05 -0.20499355 -0.24770468
1.052 -0.20710078 -0.24817653
1.052 -0.20881751 -0.24817653
1.0549999 -0.21113463 -0.24888423
1.057 -0.2132598 -0.24935608
1.057 -0.2149847 -0.24935608
1.059 -0.21711963 -0.24982788
1.059 -0.2188478 -0.24982788
1.061 -0.22099254 -0.25029969
1.061 -0.22272396 -0.25029969
1.061 -0.22445539 -0.25029969
1.063 -0.22661318 -0.25077152
1.0650001 -0.22877751 -0.25124335
1.0650001 -0.23051548 -0.25124335
1.066 -0.2324715 -0.25147924
1.0700001 -0.23508994 -0.2524229
1.0700001 -0.23683605 -0.2524229
1.074 -0.23947406 -0.25336653
1.074 -0.24122669 -0.25336653
1.076 -0.24343181 -0.25383833
1.0779999 -0.24564345 -0.25431013
1.0779999 -0.24740261 -0.25431013
1.081 -0.24985519 -0.25501788
1.085 -0.25255033 -0.25596154
1.085 -0.25432092 -0.25596154
1.087 -0.25656357 -0.25643334
1.091 -0.25928807 -0.25737697
1.091 -0.26106843 -0.25737697
1.099 -0.26477623 -0.25926423
1.099 -0.26656967 -0.25926423
1.045 0.043253679 -0.24823044
1.045 0.04154836 -0.24823044
1.045 0.039843045 -0.24823044
1.048 0.038247213 -0.24894308
1.036 0.015831068 -0.24609259
1.036 0.014140436 -0.24609259
1.0319999 0.012401736 -0.2451424
1.0319999 0.010717633 -0.2451424
1.029 0.0090072704 -0.24442981
1.027 0.0073138191 -0.2439547
1.027 0.0056378753 -0.2439547
1.025 0.0039542159 -0.24347962
1.025 0.0022815356 -0.24347962
1.025 0.00060885557 -0.24347962
1.022 -0.0010607109 -0.24276699
1.022 -0.0027284953 -0.24276699
1.022 -0.0043962798 -0.24276699
1.0140001 -0.0093260556 -0.24086669
1.012 -0.010959126 -0.24039158
1.012 -0.012610591 -0.24039158
1.012 -0.014262057 -0.24039158
1.012 -0.015913522 -0.24039158
1.01 -0.017530276 -0.23991652
1.01 -0.019178478 -0.23991652
1.01 -0.020826679 -0.23991652
1.01 -0.022474881 -0.23991652
1.01 -0.024123084 -0.23991652
1.01 -0.025771284 -0.23991652
1.01 -0.027419487 -0.23991652
1.01 -0.029067688 -0.23991652
1.01 -0.03071589 -0.23991652
1.01 -0.032364093 -0.23991652
1.012 -0.034079645 -0.24039158
1.012 -0.035731111 -0.24039158
1.0140001 -0.037456457 -0.24086669
1.017 -0.039226897 -0.24157929
1.017 -0.040886521 -0.24157929
1.02 -0.042671654 -0.24229193
1.022 -0.044423107 -0.24276699
1.022 -0.04609089 -0.24276699
1.025 -0.047898866 -0.24347962
1.025 -0.049571548 -0.24347962
1.029 -0.05144421 -0.24442981
1.031 -0.053226668 -0.24490488
1.031 -0.05490914 -0.24490488
1.034 -0.05675628 -0.24561751
1.036 -0.058556691 -0.24609259
1.036 -0.060247321 -0.24609259
1.038 -0.062057525 -0.24656767
1.038 -0.063751414 -0.24656767
1.038 -0.065445311 -0.24656767
1.039 -0.067203894 -0.24680522
1.039 -0.068899415 -0.24680522
1.041 -0.070730835 -0.24728028
1.041 -0.07242962 -0.24728028
1.041 -0.074128412 -0.24728028
1.041 -0.075827204 -0.24728028
1.043 -0.07767494 -0.24775536
1.041 -0.079224788 -0.24728028
1.041 -0.080923572 -0.24728028
1.041 -0.082622364 -0.24728028
1.041 -0.084321156 -0.24728028
1.043 -0.086185209 -0.24775536
1.043 -0.087887265 -0.24775536
1.043 -0.089589313 -0.24775536
1.043 -0.091291368 -0.24775536
1.043 -0.092993423 -0.24775536
1.045 -0.094877057 -0.24823044
1.045 -0.096582375 -0.24823044
1.046 -0.09838175 -0.248468
1.048 -0.10028008 -0.24894308
1.048 -0.10199029 -0.24894308
1.048 -0.1037005 -0.24894308
1.048 -0.10541072 -0.24894308
1.048 -0.10712093 -0.24894308
1.05 -0.10903883 -0.24941814
1.05 -0.11075231 -0.24941814
1.05 -0.11246578 -0.24941814
1.05 -0.11417926 -0.24941814
1.05 -0.11589274 -0.24941814
1.05 -0.11760622 -0.24941814
1.05 -0.11931969 -0.24941814
1.05 -0.12103317 -0.24941814
1.05 -0.12274665 -0.24941814
1.05 -0.12446012 -0.24941814
1.048 -0.12593327 -0.24894308
1.048 -0.1276435 -0.24894308
1.048 -0.1293537 -0.24894308
1.048 -0.13106392 -0.24894308
1.048 -0.13277413 -0.24894308
1.048 -0.13448435 -0.24894308
1.048 -0.13619456 -0.24894308
1.048 -0.13790476 -0.24894308
1.048 -0.13961498 -0.24894308
1.048 -0.14132519 -0.24894308
1.048 -0.14303541 -0.24894308
1.05 -0.14502186 -0.24941814
1.05 -0.14673533 -0.24941814
1.05 -0.14844881 -0.24941814
1.05 -0.15016228 -0.24941814
1.05 -0.15187576 -0.24941814
1.05 -0.15358923 -0.24941814
1.05 -0.15530272 -0.24941814
1.05 -0.15701619 -0.24941814
1.05 -0.15872967 -0.24941814
1.05 -0.16044314 -0.24941814
1.05 -0.16215663 -0.24941814
1.048 -0.16355798 -0.24894308
1.048 -0.16526818 -0.24894308
1.046 -0.16665974 -0.248468
1.046 -0.16836669 -0.248468
1.046 -0.17007364 -0.248468
1.045 -0.17161636 -0.24823044
1.045 -0.17332168 -0.24823044
1.045 -0.175027 -0.24823044
1.045 -0.17673232 -0.24823044
1.045 -0.17843762 -0.24823044
1.045 -0.18014294 -0.24823044
1.045 -0.18184826 -0.24823044
1.045 -0.18355358 -0.24823044
1.045 -0.1852589 -0.24823044
1.045 -0.18696421 -0.24823044
1.045 -0.18866953 -0.24823044
1.045 -0.19037485 -0.24823044
1.05 -0.19299921 -0.24941814
1.05 -0.19471268 -0.24941814
1.054 -0.19717447 -0.25036833
1.0549999 -0.19908316 -0.25060585
1.0549999 -0.2008048 -0.25060585
1.0549999 -0.20252644 -0.25060585
1.0549999 -0.20424807 -0.25060585
1.057 -0.20636019 -0.25108096
1.061 -0.20887254 -0.25203112
1.061 -0.21060397 -0.25203112
1.0650001 -0.21313591 -0.25298128
1.068 -0.21547914 -0.25369388
1.068 -0.21722199 -0.25369388
1.0700001 -0.2193749 -0.25416899
1.0700001 -0.22112101 -0.25416899
1.0700001 -0.22286713 -0.25416899
1.0700001 -0.22461325 -0.25416899
1.0700001 -0.22635937 -0.25416899
1.072 -0.22853184 -0.25464407
1.074 -0.23071083 -0.25511914
1.074 -0.23246348 -0.25511914
1.0779999 -0.23508842 -0.2560693
1.079 -0.23706731 -0.25630686
1.079 -0.23882812 -0.25630686
1.0829999 -0.2414808 -0.25725701
1.0829999 -0.24324813 -0.25725701
1.085 -0.24546796 -0.25773209
1.089 -0.24815002 -0.25868225
1.089 -0.24992713 -0.25868225
1.0930001 -0.2526288 -0.25963244
1.099 -0.25580904 -0.26105767
1.099 -0.25760248 -0.26105767
1.017 0.053712104 -0.2432389
1.017 0.052052479 -0.2432389
1.0190001 0.050491959 -0.24371727
1.0190001 0.048829071 -0.24371727
1.022 0.047305036 -0.24443476
1.025 0.045771219 -0.24515229
1.025 0.044098537 -0.24515229
1.027 0.042508639 -0.24563062
1.0319999 0.041031491 -0.24682648
1.0319999 0.039347388 -0.24682648
1.036 0.037809268 -0.2477832
1.036 0.036118638 -0.2477832
1.038 0.034494471 -0.24826154
1.041 0.032895375 -0.24897906
1.039 0.031136651 -0.24850072
1.039 0.029441124 -0.24850072
1.039 0.027745597 -0.24850072
1.038 0.026024997 -0.24826154
1.038 0.024331102 -0.24826154
1.038 0.022637207 -0.24826154
1.039 0.02096349 -0.24850072
1.039 0.019267963 -0.24850072
1.038 0.017555524 -0.24826154
1.036 0.015831068 -0.2477832
1.036 0.014140436 -0.2477832
1.0319999 0.012401736 -0.24682648
1.0319999 0.010717633 -0.24682648
1.029 0.0090072704 -0.24610899
1.027 0.0073138191 -0.24563062
1.027 0.0056378753 -0.24563062
1.025 0.0039542159 -0.24515229
1.025 0.0022815356 -0.24515229
1.025 0.00060885557 -0.24515229
1.022 -0.0010607109 -0.24443476
1.022 -0.0027284953 -0.24443476
1.022 -0.0043962798 -0.24443476
1.022 -0.0060640643 -0.24443476
1.022 -0.0077318489 -0.24443476
1.0140001 -0.0093260556 -0.24252141
1.012 -0.010959126 -0.24204303
1.012 -0.012610591 -0.24204303
1.012 -0.014262057 -0.24204303
1.012 -0.015913522 -0.24204303
1.01 -0.017530276 -0.24156469
1.01 -0.019178478 -0.24156469
1.01 -0.020826679 -0.24156469
1.01 -0.022474881 -0.24156469
1.01 -0.024123084 -0.24156469
1.01 -0.025771284 -0.24156469
1.01 -0.027419487 -0.24156469
1.01 -0.029067688 -0.24156469
1.01 -0.03071589 -0.24156469
1.01 -0.032364093 -0.24156469
1.012 -0.034079645 -0.24204303
1.012 -0.035731111 -0.24204303
1.0140001 -0.037456457 -0.24252141
1.017 -0.039226897 -0.2432389
1.017 -0.040886521 -0.2432389
1.02 -0.042671654 -0.24395643
1.022 -0.044423107 -0.24443476
1.022 -0.04609089 -0.24443476
1.025 -0.047898866 -0.24515229
1.025 -0.049571548 -0.24515229
1.029 -0.05144421 -0.24610899
1.031 -0.053226668 -0.24658734
1.031 -0.05490914 -0.24658734
1.034 -0.05675628 -0.24730486
1.036 -0.058556691 -0.2477832
1.036 -0.060247321 -0.2477832
1.038 -0.062057525 -0.24826154
1.038 -0.063751414 -0.24826154
1.038 -0.065445311 -0.24826154
1.039 -0.067203894 -0.24850072
1.039 -0.068899415 -0.24850072
1.041 -0.070730835 -0.24897906
1.041 -0.07242962 -0.24897906
1.041 -0.074128412 -0.24897906
1.041 -0.075827204 -0.24897906
1.043 -0.07767494 -0.2494574
1.041 -0.079224788 -0.24897906
1.041 -0.080923572 -0.24897906
1.041 -0.082622364 -0.24897906
1.041 -0.084321156 -0.24897906
1.043 -0.086185209 -0.2494574
1.043 -0.087887265 -0.2494574
1.043 -0.089589313 -0.2494574
1.043 -0.091291368 -0.2494574
1.043 -0.092993423 -0.2494574
1.045 -0.094877057 -0.24993575
1.045 -0.096582375 -0.24993575
1.046 -0.09838175 -0.25017494
1.048 -0.10028008 -0.25065327
1.048 -0.10199029 -0.25065327
1.048 -0.1037005 -0.25065327
1.048 -0.10541072 -0.25065327
1.048 -0.10712093 -0.25065327
1.05 -0.10903883 -0.25113159
1.05 -0.11075231 -0.25113159
1.05 -0.11246578 -0.25113159
1.05 -0.11417926 -0.25113159
1.05 -0.11589274 -0.25113159
1.05 -0.11760622 -0.25113159
1.05 -0.11931969 -0.25113159
1.05 -0.12103317 -0.25113159
1.05 -0.12274665 -0.25113159
1.05 -0.12446012 -0.25113159
1.048 -0.12593327 -0.25065327
1.048 -0.1276435 -0.25065327
1.048 -0.1293537 -0.25065327
1.048 -0.13106392 -0.25065327
1.048 -0.13277413 -0.25065327
1.048 -0.13448435 -0.25065327
1.048 -0.13619456 -0.25065327
1.048 -0.13790476 -0.25065327
1.048 -0.13961498 -0.25065327
1.048 -0.14132519 -0.25065327
1.048 -0.14303541 -0.25065327
1.05 -0.14502186 -0.25113159
1.05 -0.14673533 -0.25113159
1.05 -0.14844881 -0.25113159
1.05 -0.15016228 -0.25113159
1.05 -0.15187576 -0.25113159
1.05 -0.15358923 -0.25113159
1.05 -0.15530272 -0.25113159
1.05 -0.15701619 -0.25113159
1.05 -0.15872967 -0.25113159
1.05 -0.16044314 -0.25113159
1.05 -0.16215663 -0.25113159
1.048 -0.16355798 -0.25065327
1.048 -0.16526818 -0.25065327
1.046 -0.16665974 -0.25017494
1.046 -0.16836669 -0.25017494
1.046 -0.17007364 -0.25017494
1.045 -0.17161636 -0.24993575
1.045 -0.17332168 -0.24993575
1.045 -0.175027 -0.24993575
1.045 -0.17673232 -0.24993575
1.045 -0.17843762 -0.24993575
1.045 -0.18014294 -0.24993575
1.045 -0.18184826 -0.24993575
1.045 -0.18355358 -0.24993575
1.045 -0.1852589 -0.24993575
1.045 -0.18696421 -0.24993575
1.045 -0.18866953 -0.24993575
1.045 -0.19037485 -0.24993575
1.05 -0.19299921 -0.25113159
1.05 -0.19471268 -0.25113159
1.054 -0.19717447 -0.25208831
1.0549999 -0.19908316 -0.25232747
1.0549999 -0.2008048 -0.25232747
1.0549999 -0.20252644 -0.25232747
1.0549999 -0.20424807 -0.25232747
1.057 -0.20636019 -0.25280583
1.061 -0.20887254 -0.25376251
1.061 -0.21060397 -0.25376251
1.0650001 -0.21313591 -0.25471923
1.068 -0.21547914 -0.25543672
1.068 -0.21722199 -0.25543672
1.0700001 -0.2193749 -0.25591508
1.0700001 -0.22112101 -0.25591508
1.0700001 -0.22286713 -0.25591508
1.0700001 -0.22461325 -0.25591508
1.0700001 -0.22635937 -0.25591508
1.072 -0.22853184 -0.25639343
1.074 -0.23071083 -0.25687176
1.074 -0.23246348 -0.25687176
1.0779999 -0.23508842 -0.25782844
1.079 -0.23706731 -0.25806764
1.079 -0.23882812 -0.25806764
1.0829999 -0.2414808 -0.25902432
1.017 0.053712104 -0.24489851
1.017 0.052052479 -0.24489851
1.0190001 0.050491959 -0.24538015
1.0190001 0.048829071 -0.24538015
1.022 0.047305036 -0.24610253
1.025 0.045771219 -0.24682495
1.025 0.044098537 -0.24682495
1.027 0.042508639 -0.24730656
1.0319999 0.041031491 -0.24851058
1.0319999 0.039347388 -0.24851058
1.036 0.037809268 -0.24947381
1.036 0.036118638 -0.24947381
1.038 0.034494471 -0.24995542
1.041 0.032895375 -0.25067782
1.039 0.031136651 -0.25019625
1.039 0.029441124 -0.25019625
1.039 0.027745597 -0.25019625
1.038 0.026024997 -0.24995542
1.038 0.024331102 -0.24995542
1.038 0.022637207 -0.24995542
1.039 0.02096349 -0.25019625
1.039 0.019267963 -0.25019625
1.038 0.017555524 -0.24995542
1.038 0.015861629 -0.24995542
1.038 0.014167734 -0.24995542
1.034 0.012425772 -0.2489922
1.034 0.010738404 -0.2489922
1.0319999 0.00903353 -0.24851058
1.0319999 0.0073494264 -0.24851058
1.0319999 0.0056653232 -0.24851058
1.031 0.0039773625 -0.2482698
1.029 0.0022904393 -0.24778819
1.029 0.0006112316 -0.24778819
1.025 -0.0010638245 -0.24682495
1.025 -0.0027365047 -0.24682495
1.024 -0.0044048834 -0.24658416
1.022 -0.0060640643 -0.24610253
1.022 -0.0077318489 -0.24610253
1.0190001 -0.0093720425 -0.24538015
1.017 -0.011013271 -0.24489851
1.017 -0.012672896 -0.24489851
1.015 -0.014304336 -0.24441691
1.015 -0.015960697 -0.24441691
1.0140001 -0.017599704 -0.24417612
1.0140001 -0.019254433 -0.24417612
1.0140001 -0.020909162 -0.24417612
1.012 -0.022519385 -0.24369448
1.012 -0.024170851 -0.24369448
1.0140001 -0.025873352 -0.24417612
1.012 -0.027473781 -0.24369448
1.012 -0.029125247 -0.24369448
1.012 -0.030776713 -0.24369448
1.0140001 -0.032492269 -0.24417612
1.015 -0.034180671 -0.24441691
1.015 -0.035837032 -0.24441691
1.015 -0.037493393 -0.24441691
1.0190001 -0.039304044 -0.24538015
1.0190001 -0.040966932 -0.24538015
1.022 -0.042755321 -0.24610253
1.024 -0.044510044 -0.24658416
1.024 -0.046181094 -0.24658416
1.027 -0.047992326 -0.24730656
1.027 -0.049668271 -0.24730656
1.031 -0.051544197 -0.2482698
1.034 -0.053381547 -0.2489922
1.034 -0.055068914 -0.2489922
1.038 -0.056975838 -0.24995542
1.039 -0.058726259 -0.25019625
1.039 -0.060421783 -0.25019625
1.041 -0.062236883 -0.25067782
1.043 -0.064058505 -0.25115943
1.043 -0.06576056 -0.25115943
1.043 -0.067462616 -0.25115943
1.043 -0.069164671 -0.25115943
1.043 -0.070866719 -0.25115943
1.043 -0.072568774 -0.25115943
1.043 -0.07427083 -0.25115943
1.043 -0.075972885 -0.25115943
1.043 -0.07767494 -0.25115943
1.043 -0.079376988 -0.25115943
1.045 -0.081234515 -0.25164104
1.045 -0.082939833 -0.25164104
1.043 -0.084483154 -0.25115943
1.043 -0.086185209 -0.25115943
1.043 -0.087887265 -0.25115943
1.045 -0.089761108 -0.25164104
1.045 -0.091466419 -0.25164104
1.045 -0.093171738 -0.25164104
1.046 -0.094967857 -0.25188187
1.046 -0.0966748 -0.25188187
1.048 -0.098569863 -0.25236347
1.05 -0.10047144 -0.25284508
1.05 -0.10218492 -0.25284508
1.05 -0.1038984 -0.25284508
1.05 -0.10561188 -0.25284508
1.05 -0.10732535 -0.25284508
1.052 -0.10924654 -0.25332671
1.054 -0.11117423 -0.25380829
1.054 -0.11289424 -0.25380829
1.0549999 -0.11472297 -0.25404909
1.054 -0.11633424 -0.25380829
1.054 -0.11805425 -0.25380829
1.054 -0.11977425 -0.25380829
1.054 -0.12149426 -0.25380829
1.052 -0.12298046 -0.25332671
1.052 -0.1246972 -0.25332671
1.052 -0.12641394 -0.25332671
1.052 -0.12813069 -0.25332671
1.052 -0.12984742 -0.25332671
1.052 -0.13156417 -0.25332671
1.052 -0.1332809 -0.25332671
1.05 -0.13474099 -0.25284508
1.05 -0.13645446 -0.25284508
1.05 -0.13816795 -0.25284508
1.05 -0.13988142 -0.25284508
1.05 -0.1415949 -0.25284508
1.05 -0.14330837 -0.25284508
1.052 -0.14529809 -0.25332671
1.052 -0.14701484 -0.25332671
1.052 -0.14873157 -0.25332671
1.052 -0.15044832 -0.25332671
1.052 -0.15216506 -0.25332671
1.052 -0.1538818 -0.25332671
1.052 -0.15559855 -0.25332671
1.05 -0.15701619 -0.25284508
1.05 -0.15872967 -0.25284508
1.05 -0.16044314 -0.25284508
1.05 -0.16215663 -0.25284508
1.048 -0.16355798 -0.25236347
1.048 -0.16526818 -0.25236347
1.046 -0.16665974 -0.25188187
1.046 -0.16836669 -0.25188187
1.046 -0.17007364 -0.25188187
1.046 -0.17178059 -0.25188187
1.046 -0.17348754 -0.25188187
1.046 -0.17519449 -0.25188187
1.048 -0.17723969 -0.25236347
1.054 -0.17997442 -0.25380829
1.054 -0.18169443 -0.25380829
1.057 -0.18393649 -0.25453073
1.061 -0.18636398 -0.25549394
1.061 -0.18809541 -0.25549394
1.066 -0.19072139 -0.25669795
1.066 -0.19246098 -0.25669795
1.072 -0.19529364 -0.2581428
1.0779999 -0.19814585 -0.25958762
1.0779999 -0.19990502 -0.25958762
1.085 -0.20297372 -0.26127326
1.087 -0.20512173 -0.26175487
1.085 -0.20651491 -0.26127326
1.085 -0.2082855 -0.26127326
1.087 -0.21044329 -0.26175487
1.087 -0.21221715 -0.26175487
1.089 -0.21438472 -0.26223648
1.089 -0.21616185 -0.26223648
1.089 -0.21793897 -0.26223648
1.089 -0.21971609 -0.26223648
1.089 -0.22149321 -0.26223648
1.087 -0.22286029 -0.26175487
1.087 -0.22463414 -0.26175487
1.087 -0.226408 -0.26175487
1.087 -0.22818185 -0.26175487
1.017 0.053712104 -0.24655811
1.017 0.052052479 -0.24655811
1.0190001 0.050491959 -0.24704301
1.0190001 0.048829071 -0.24704301
1.022 0.047305036 -0.24777029
1.025 0.045771219 -0.24849762
1.025 0.044098537 -0.24849762
1.027 0.042508639 -0.24898249
1.0319999 0.041031491 -0.25019467
1.0319999 0.039347388 -0.25019467
1.036 0.037809268 -0.25116444
1.036 0.036118638 -0.25116444
1.038 0.034494471 -0.25164929
1.041 0.032895375 -0.25237662
1.039 0.031136651 -0.25189173
1.039 0.029441124 -0.25189173
1.039 0.027745597 -0.25189173
1.038 0.026024997 -0.25164929
1.038 0.024331102 -0.25164929
1.038 0.022637207 -0.25164929
1.038 0.020943314 -0.25164929
1.039 0.019267963 -0.25189173
1.038 0.017555524 -0.25164929
1.038 0.015861629 -0.25164929
1.038 0.014167734 -0.25164929
1.034 0.012425772 -0.25067955
1.034 0.010738404 -0.25067955
1.0319999 0.00903353 -0.25019467
1.0319999 0.0073494264 -0.25019467
1.0319999 0.0056653232 -0.25019467
1.031 0.0039773625 -0.24995224
1.029 0.0022904393 -0.24946737
1.029 0.0006112316 -0.24946737
1.025 -0.0010638245 -0.24849762
1.025 -0.0027365047 -0.24849762
1.024 -0.0044048834 -0.24825519
1.022 -0.0060640643 -0.24777029
1.022 -0.0077318489 -0.24777029
1.0190001 -0.0093720425 -0.24704301
1.017 -0.011013271 -0.24655811
1.017 -0.012672896 -0.24655811
1.015 -0.014304336 -0.24607325
1.015 -0.015960697 -0.24607325
1.0140001 -0.017599704 -0.24583083
1.0140001 -0.019254433 -0.24583083
1.0140001 -0.020909162 -0.24583083
1.012 -0.022519385 -0.24534594
1.012 -0.024170851 -0.24534594
1.0140001 -0.025873352 -0.24583083
1.012 -0.027473781 -0.24534594
1.012 -0.029125247 -0.24534594
1.012 -0.030776713 -0.24534594
1.0140001 -0.032492269 -0.24583083
1.015 -0.034180671 -0.24607325
1.015 -0.035837032 -0.24607325
1.015 -0.037493393 -0.24607325
1.0190001 -0.039304044 -0.24704301
1.0190001 -0.040966932 -0.24704301
1.022 -0.042755321 -0.24777029
1.024 -0.044510044 -0.24825519
1.024 -0.046181094 -0.24825519
1.027 -0.047992326 -0.24898249
1.027 -0.049668271 -0.24898249
1.031 -0.051544197 -0.24995224
1.034 -0.053381547 -0.25067955
1.034 -0.055068914 -0.25067955
1.038 -0.056975838 -0.25164929
1.039 -0.058726259 -0.25189173
1.039 -0.060421783 -0.25189173
1.041 -0.062236883 -0.25237662
1.043 -0.064058505 -0.25286147
1.043 -0.06576056 -0.25286147
1.043 -0.067462616 -0.25286147
1.043 -0.069164671 -0.25286147
1.043 -0.070866719 -0.25286147
1.043 -0.072568774 -0.25286147
1.043 -0.07427083 -0.25286147
1.043 -0.075972885 -0.25286147
1.043 -0.07767494 -0.25286147
1.043 -0.079376988 -0.25286147
1.045 -0.081234515 -0.25334635
1.045 -0.082939833 -0.25334635
1.043 -0.084483154 -0.25286147
1.043 -0.086185209 -0.25286147
1.043 -0.087887265 -0.25286147
1.045 -0.089761108 -0.25334635
1.045 -0.091466419 -0.25334635
1.045 -0.093171738 -0.25334635
1.046 -0.094967857 -0.2535888
1.046 -0.0966748 -0.2535888
1.048 -0.098569863 -0.25407365
1.05 -0.10047144 -0.25455853
1.05 -0.10218492 -0.25455853
1.05 -0.1038984 -0.25455853
1.05 -0.10561188 -0.25455853
1.05 -0.10732535 -0.25455853
1.052 -0.10924654 -0.25504342
1.054 -0.11117423 -0.2555283
1.054 -0.11289424 -0.2555283
1.0549999 -0.11472297 -0.25577071
1.054 -0.11633424 -0.2555283
1.054 -0.11805425 -0.2555283
1.054 -0.11977425 -0.2555283
1.054 -0.12149426 -0.2555283
1.052 -0.12298046 -0.25504342
1.052 -0.1246972 -0.25504342
1.052 -0.12641394 -0.25504342
1.057 -0.12873967 -0.2562556
1.057 -0.13046457 -0.2562556
1.0549999 -0.13193934 -0.25577071
1.0549999 -0.13366097 -0.25577071
1.054 -0.13525429 -0.2555283
1.054 -0.1369743 -0.2555283
1.054 -0.1386943 -0.2555283
1.054 -0.14041431 -0.2555283
1.054 -0.14213432 -0.2555283
1.054 -0.14385432 -0.2555283
1.054 -0.14557433 -0.2555283
1.054 -0.14729433 -0.2555283
1.054 -0.14901434 -0.2555283
1.054 -0.15073434 -0.2555283
1.054 -0.15245435 -0.2555283
1.054 -0.15417434 -0.2555283
1.054 -0.15589435 -0.2555283
1.052 -0.15731528 -0.25504342
1.052 -0.15903203 -0.25504342
1.052 -0.16074876 -0.25504342
1.052 -0.16246551 -0.25504342
1.052 -0.16418225 -0.25504342
1.054 -0.16621438 -0.2555283
1.054 -0.16793439 -0.2555283
1.0549999 -0.16981535 -0.25577071
1.0549999 -0.17153698 -0.25577071
1.059 -0.17391554 -0.25674048
1.061 -0.17597541 -0.25722533
1.061 -0.17770684 -0.25722533
1.068 -0.18062212 -0.2589224
1.0779999 -0.18407249 -0.26134676
1.0779999 -0.18583167 -0.26134676
1.085 -0.18880898 -0.26304382
1.095 -0.19233607 -0.26546821
1.095 -0.19412297 -0.26546821
1.022 0.038966116 -0.24943806
1.022 0.037298333 -0.24943806
1.022 0.035630547 -0.24943806
1.024 0.03402923 -0.24992622
1.025 0.032389779 -0.25017029
1.025 0.030717097 -0.25017029
1.027 0.029101089 -0.25065842
1.027 0.027425146 -0.25065842
1.027 0.025749201 -0.25065842
1.029 0.024120141 -0.25114658
1.029 0.022440933 -0.25114658
1.0319999 0.020822253 -0.25187874
1.034 0.019175241 -0.2523669
1.034 0.017487872 -0.2523669
1.038 0.015861629 -0.25334316
1.038 0.014167734 -0.25334316
1.038 0.01247384 -0.25334316
1.038 0.010779945 -0.25334316
1.038 0.009086051 -0.25334316
1.036 0.0073779132 -0.25285503
1.036 0.0056872824 -0.25285503
1.036 0.0039966516 -0.25285503
1.034 0.0023015689 -0.2523669
1.034 0.00061420165 -0.2523669
1.031 -0.0010700519 -0.25163469
1.031 -0.0027525234 -0.25163469
1.029 -0.0044263918 -0.25114658
1.025 -0.0060818647 -0.25017029
1.025 -0.0077545452 -0.25017029
1.022 -0.0093996329 -0.24943806
1.02 -0.01104576 -0.24894994
1.02 -0.01271028 -0.24894994
1.0190001 -0.014360709 -0.24870589
1.0190001 -0.016023599 -0.24870589
1.017 -0.017651772 -0.24821773
1.015 -0.019273421 -0.2477296
1.015 -0.020929782 -0.2477296
1.015 -0.022586143 -0.2477296
1.015 -0.024242504 -0.2477296
1.015 -0.025898864 -0.2477296
1.015 -0.027555227 -0.2477296
1.015 -0.029211588 -0.2477296
1.015 -0.030867949 -0.2477296
1.015 -0.03252431 -0.2477296
1.017 -0.03424802 -0.24821773
1.017 -0.035907649 -0.24821773
1.0190001 -0.037641153 -0.24870589
1.022 -0.039419752 -0.24943806
1.022 -0.041087538 -0.24943806
1.025 -0.042880826 -0.25017029
1.027 -0.04464044 -0.25065842
1.027 -0.046316385 -0.25065842
1.031 -0.048179254 -0.25163469
1.031 -0.049861725 -0.25163469
1.034 -0.051694181 -0.2523669
1.039 -0.05363968 -0.25358725
1.039 -0.055335205 -0.25358725
1.041 -0.057140511 -0.25407538
1.043 -0.058952343 -0.25456351
1.043 -0.060654398 -0.25456351
1.046 -0.062535807 -0.25529572
1.046 -0.064242758 -0.25529572
1.046 -0.065949708 -0.25529572
1.046 -0.067656659 -0.25529572
1.046 -0.069363609 -0.25529572
1.046 -0.071070559 -0.25529572
1.048 -0.072916657 -0.25578386
1.048 -0.07462687 -0.25578386
1.048 -0.076337084 -0.25578386
1.048 -0.078047298 -0.25578386
1.048 -0.079757512 -0.25578386
1.048 -0.081467725 -0.25578386
1.048 -0.083177939 -0.25578386
1.048 -0.084888153 -0.25578386
1.048 -0.086598366 -0.25578386
1.048 -0.08830858 -0.25578386
1.048 -0.090018794 -0.25578386
1.05 -0.091904059 -0.25627199
1.05 -0.093617536 -0.25627199
1.052 -0.095512606 -0.25676015
1.054 -0.097414188 -0.25724828
1.054 -0.099134199 -0.25724828
1.0549999 -0.10094988 -0.25749233
1.0549999 -0.10267152 -0.25749233
1.0549999 -0.10439315 -0.25749233
1.057 -0.10631596 -0.2579805
1.057 -0.10804087 -0.2579805
1.057 -0.10976577 -0.2579805
1.059 -0.11170162 -0.25846863
1.059 -0.11342978 -0.25846863
1.059 -0.11515795 -0.25846863
1.059 -0.11688612 -0.25846863
1.059 -0.11861428 -0.25846863
1.059 -0.12034244 -0.25846863
1.057 -0.12184007 -0.2579805
1.057 -0.12356497 -0.2579805
1.057 -0.12528987 -0.2579805
1.057 -0.12701477 -0.2579805
1.057 -0.12873967 -0.2579805
1.057 -0.13046457 -0.2579805
1.0549999 -0.13193934 -0.25749233
1.0549999 -0.13366097 -0.25749233
1.054 -0.13525429 -0.25724828
1.054 -0.1369743 -0.25724828
1.054 -0.1386943 -0.25724828
1.054 -0.14041431 -0.25724828
1.054 -0.14213432 -0.25724828
1.054 -0.14385432 -0.25724828
1.054 -0.14557433 -0.25724828
1.054 -0.14729433 -0.25724828
1.054 -0.14901434 -0.25724828
1.054 -0.15073434 -0.25724828
1.054 -0.15245435 -0.25724828
1.054 -0.15417434 -0.25724828
1.054 -0.15589435 -0.25724828
1.052 -0.15731528 -0.25676015
1.052 -0.15903203 -0.25676015
1.052 -0.16074876 -0.25676015
1.052 -0.16246551 -0.25676015
1.052 -0.16418225 -0.25676015
1.054 -0.16621438 -0.25724828
1.054 -0.16793439 -0.25724828
1.0549999 -0.16981535 -0.25749233
1.0549999 -0.17153698 -0.25749233
1.059 -0.17391554 -0.25846863
1.061 -0.17597541 -0.25895676
1.061 -0.17770684 -0.25895676
1.068 -0.18062212 -0.26066524
1.0779999 -0.18407249 -0.2631059
1.0779999 -0.18583167 -0.2631059
1.085 -0.18880898 -0.26481441
1.095 -0.19412297 -0.2672551
0.97799999 0.1250675 -0.24029502
0.98000002 0.12212478 -0.24078643
0.98000002 0.12052553 -0.24078643
1.022 0.038966116 -0.25110584
1.022 0.037298333 -0.25110584
1.022 0.035630547 -0.25110584
1.024 0.03402923 -0.25159726
1.025 0.032389779 -0.25184295
1.025 0.030717097 -0.25184295
1.027 0.029101089 -0.25233433
1.027 0.027425146 -0.25233433
1.027 0.025749201 -0.25233433
1.029 0.024120141 -0.25282577
1.029 0.022440933 -0.25282577
1.0319999 0.020822253 -0.25356284
1.034 0.019175241 -0.25405425
1.034 0.017487872 -0.25405425
1.038 0.015861629 -0.25503704
1.038 0.014167734 -0.25503704
1.038 0.01247384 -0.25503704
1.038 0.010779945 -0.25503704
1.038 0.009086051 -0.25503704
1.036 0.0073779132 -0.25454566
1.036 0.0056872824 -0.25454566
1.036 0.0039966516 -0.25454566
1.034 0.0023015689 -0.25405425
1.034 0.00061420165 -0.25405425
1.0319999 -0.0010710896 -0.25356284
1.0319999 -0.0027551928 -0.25356284
1.029 -0.0044263918 -0.25282577
1.027 -0.0060937316 -0.25233433
1.027 -0.0077696755 -0.25233433
1.024 -0.0094180284 -0.25159726
1.022 -0.011067417 -0.25110584
1.022 -0.012735202 -0.25110584
1.02 -0.014374801 -0.25061443
1.02 -0.016039321 -0.25061443
1.0190001 -0.017686486 -0.25036877
1.017 -0.019311396 -0.24987733
1.017 -0.020971023 -0.24987733
1.017 -0.022630647 -0.24987733
1.017 -0.024290271 -0.24987733
1.017 -0.025949897 -0.24987733
1.017 -0.027609522 -0.24987733
1.017 -0.029269148 -0.24987733
1.017 -0.030928772 -0.24987733
1.017 -0.032588396 -0.24987733
1.0190001 -0.034315377 -0.25036877
1.0190001 -0.035978265 -0.25036877
1.02 -0.037678089 -0.25061443
1.024 -0.039496899 -0.25159726
1.024 -0.041167948 -0.25159726
1.027 -0.042964496 -0.25233433
1.031 -0.044814311 -0.25331715
1.031 -0.046496782 -0.25331715
1.034 -0.048319448 -0.25405425
1.034 -0.050006814 -0.25405425
1.038 -0.051894154 -0.25503704
1.041 -0.05374293 -0.25577417
1.041 -0.055441719 -0.25577417
1.045 -0.057360068 -0.25675696
1.046 -0.05912191 -0.25700265
1.046 -0.060828861 -0.25700265
1.05 -0.062774949 -0.25798544
1.05 -0.064488426 -0.25798544
1.05 -0.066201903 -0.25798544
1.05 -0.06791538 -0.25798544
1.05 -0.069628857 -0.25798544
1.05 -0.071342334 -0.25798544
1.052 -0.073194973 -0.25847688
1.052 -0.074911714 -0.25847688
1.052 -0.076628454 -0.25847688
1.052 -0.078345194 -0.25847688
1.052 -0.080061935 -0.25847688
1.054 -0.081934147 -0.25896826
1.052 -0.083495416 -0.25847688
1.052 -0.085212164 -0.25847688
1.052 -0.086928904 -0.25847688
1.052 -0.088645644 -0.25847688
1.052 -0.090362385 -0.25847688
1.054 -0.092254177 -0.25896826
1.054 -0.093974181 -0.25896826
1.0549999 -0.09578497 -0.25921395
1.057 -0.097691461 -0.25970536
1.057 -0.099416368 -0.25970536
1.059 -0.10133263 -0.26019678
1.059 -0.1030608 -0.26019678
1.061 -0.10498686 -0.26068816
1.063 -0.10691945 -0.26117957
1.063 -0.10865415 -0.26117957
1.063 -0.11038884 -0.26117957
1.0650001 -0.1123345 -0.26167098
1.0650001 -0.11407245 -0.26167098
1.0650001 -0.11581041 -0.26167098
1.0650001 -0.11754836 -0.26167098
1.0650001 -0.11928632 -0.26167098
1.0650001 -0.12102427 -0.26167098
1.063 -0.12253168 -0.26117957
1.063 -0.12426637 -0.26117957
1.063 -0.12600106 -0.26117957
1.063 -0.12773575 -0.26117957
1.063 -0.12947045 -0.26117957
1.061 -0.13095829 -0.26068816
1.059 -0.1324396 -0.26019678
1.059 -0.13416776 -0.26019678
1.057 -0.13563928 -0.25970536
1.057 -0.13736418 -0.25970536
1.057 -0.13908908 -0.25970536
1.057 -0.14081398 -0.25970536
1.057 -0.14253888 -0.25970536
1.057 -0.14426377 -0.25970536
1.057 -0.14598867 -0.25970536
1.057 -0.14771357 -0.25970536
1.057 -0.14943849 -0.25970536
1.057 -0.15116338 -0.25970536
1.057 -0.15288828 -0.25970536
1.0549999 -0.15432061 -0.25921395
1.0549999 -0.15604225 -0.25921395
1.0549999 -0.15776388 -0.25921395
1.0549999 -0.15948552 -0.25921395
1.0549999 -0.16120715 -0.25921395
1.0549999 -0.1629288 -0.25921395
1.057 -0.16496259 -0.25970536
1.063 -0.16763367 -0.26117957
1.063 -0.16936836 -0.26117957
1.068 -0.17190786 -0.26240805
1.076 -0.17495146 -0.26437366
1.076 -0.17670737 -0.26437366
0.97399998 0.14362943 -0.24090166
0.972 0.14174831 -0.240407
0.972 0.14016213 -0.240407
0.97399998 0.13886106 -0.24090166
0.97399998 0.13727161 -0.24090166
0.97399998 0.13568217 -0.24090166
0.97500002 0.13423039 -0.24114901
0.97500002 0.1326393 -0.24114901
0.977 0.13131702 -0.24164367
0.977 0.12972267 -0.24164367
0.97799999 0.12825947 -0.241891
0.97799999 0.12666349 -0.241891
0.97799999 0.1250675 -0.241891
0.98000002 0.12372403 -0.24238567
0.98000002 0.12212478 -0.24238567
0.98000002 0.12052553 -0.24238567
1.022 0.038966116 -0.25277361
1.022 0.037298333 -0.25277361
1.022 0.035630547 -0.25277361
1.024 0.03402923 -0.2532683
1.025 0.032389779 -0.2535156
1.025 0.030717097 -0.2535156
1.027 0.029101089 -0.25401026
1.027 0.027425146 -0.25401026
1.027 0.025749201 -0.25401026
1.029 0.024120141 -0.25450495
1.029 0.022440933 -0.25450495
1.0319999 0.020822253 -0.25524694
1.034 0.019175241 -0.25574163
1.034 0.017487872 -0.25574163
1.038 0.015861629 -0.25673094
1.038 0.014167734 -0.25673094
1.038 0.01247384 -0.25673094
1.038 0.010779945 -0.25673094
1.038 0.009086051 -0.25673094
1.036 0.0073779132 -0.25623628
1.036 0.0056872824 -0.25623628
1.036 0.0039966516 -0.25623628
1.034 0.0023015689 -0.25574163
1.034 0.00061420165 -0.25574163
1.031 -0.0010700519 -0.25499961
1.031 -0.0027525234 -0.25499961
1.029 -0.0044263918 -0.25450495
1.025 -0.0060818647 -0.2535156
1.025 -0.0077545452 -0.2535156
1.022 -0.0093996329 -0.25277361
1.022 -0.011067417 -0.25277361
1.022 -0.012735202 -0.25277361
1.02 -0.014374801 -0.25227895
1.02 -0.016039321 -0.25227895
1.0190001 -0.017686486 -0.25203162
1.017 -0.019311396 -0.25153694
1.017 -0.020971023 -0.25153694
1.017 -0.022630647 -0.25153694
1.017 -0.024290271 -0.25153694
1.017 -0.025949897 -0.25153694
1.017 -0.027609522 -0.25153694
1.017 -0.029269148 -0.25153694
1.017 -0.030928772 -0.25153694
1.017 -0.032588396 -0.25153694
1.0190001 -0.034315377 -0.25203162
1.0190001 -0.035978265 -0.25203162
1.02 -0.037678089 -0.25227895
1.024 -0.039496899 -0.2532683
1.024 -0.041167948 -0.2532683
1.027 -0.042964496 -0.25401026
1.031 -0.044814311 -0.25499961
1.031 -0.046496782 -0.25499961
1.034 -0.048319448 -0.25574163
1.034 -0.050006814 -0.25574163
