# .PCD v0.7 - Point Cloud Data file format
VERSION 0.7
FIELDS x y z
SIZE 4 4 4
TYPE F F F
COUNT 1 1 1
WIDTH 1406
HEIGHT 1
VIEWPOINT 0 0 0 1 0 0 0
POINTS 1406
DATA ascii
0.85900003 -0.2868562 0.041262615
0.85900003 -0.28825799 0.041262615
0.85900003 -0.2896598 0.041262615
0.85900003 -0.29106158 0.041262615
0.85900003 -0.29246336 0.041262615
0.85900003 -0.29386514 0.041262615
0.85900003 -0.29526693 0.041262615
0.85799998 -0.29632333 0.041214578
0.85799998 -0.2977235 0.041214578
0.85799998 -0.29912364 0.041214578
0.85799998 -0.30052382 0.041214578
0.85699999 -0.30157208 0.041166544
0.85600001 -0.30261707 0.041118506
0.85600001 -0.30401397 0.041118506
0.85299999 -0.30434048 0.040974401
0.85299999 -0.30573249 0.040974401
0.85100001 -0.30640438 0.040878329
0.84899998 -0.30706975 0.040782258
0.84899998 -0.3084552 0.040782258
0.84899998 -0.30984068 0.040782258
0.84600002 -0.31012642 0.040638153
0.84600002 -0.31150699 0.040638153
0.84500003 -0.31251773 0.040590119
0.84500003 -0.31389666 0.040590119
0.84399998 -0.31490248 0.040542081
0.84200001 -0.31553033 0.040446009
0.84200001 -0.31690437 0.040446009
0.84200001 -0.31827843 0.040446009
0.84100002 -0.31927285 0.040397976
0.84100002 -0.32064524 0.040397976
0.84100002 -0.32201767 0.040397976
0.84100002 -0.32339007 0.040397976
0.84100002 -0.32476249 0.040397976
0.84100002 -0.32613489 0.040397976
0.84100002 -0.32750732 0.040397976
0.84100002 -0.32887974 0.040397976
0.83899999 -0.32946676 0.0403019
0.83899999 -0.33083591 0.0403019
0.83899999 -0.33220506 0.0403019
0.83899999 -0.33357421 0.0403019
0.83899999 -0.33494335 0.0403019
0.838 -0.33591166 0.040253866
0.838 -0.33727917 0.040253866
0.838 -0.33864668 0.040253866
0.838 -0.34001422 0.040253866
0.838 -0.34138173 0.040253866
0.83700001 -0.34234023 0.040205833
0.83700001 -0.34370613 0.040205833
0.83700001 -0.345072 0.040205833
0.83700001 -0.3464379 0.040205833
0.83700001 -0.3478038 0.040205833
0.83600003 -0.3487525 0.040157795
0.83499998 -0.34969795 0.040109757
0.83499998 -0.35106057 0.040109757
0.83499998 -0.35242319 0.040109757
0.83499998 -0.35378581 0.040109757
0.83499998 -0.35514843 0.040109757
0.83499998 -0.35651106 0.040109757
0.83499998 -0.35787368 0.040109757
0.83499998 -0.3592363 0.040109757
0.83499998 -0.36059892 0.040109757
0.83499998 -0.36196154 0.040109757
0.83499998 -0.36332417 0.040109757
0.83600003 -0.36512357 0.040157795
0.83600003 -0.36648783 0.040157795
0.83600003 -0.36785206 0.040157795
0.83600003 -0.36921632 0.040157795
0.83600003 -0.37058058 0.040157795
0.83600003 -0.37194484 0.040157795
0.83700001 -0.37375563 0.040205833
0.83700001 -0.3751215 0.040205833
0.83700001 -0.3764874 0.040205833
0.83700001 -0.37785327 0.040205833
0.83700001 -0.37921917 0.040205833
0.83700001 -0.38058504 0.040205833
0.83700001 -0.38195094 0.040205833
0.83700001 -0.38331681 0.040205833
0.83700001 -0.38468271 0.040205833
0.83700001 -0.38604859 0.040205833
0.83700001 -0.38741449 0.040205833
0.83700001 -0.38878039 0.040205833
0.83700001 -0.39014626 0.040205833
0.83700001 -0.39151216 0.040205833
0.83700001 -0.39287803 0.040205833
0.83700001 -0.39424393 0.040205833
0.83700001 -0.3956098 0.040205833
0.83600003 -0.39650142 0.040157795
0.83600003 -0.39786565 0.040157795
0.83600003 -0.39922991 0.040157795
0.83499998 -0.40011498 0.040109757
0.83499998 -0.40147761 0.040109757
0.83399999 -0.40235779 0.040061723
0.833 -0.40323469 0.04001369
0.833 -0.40459406 0.04001369
0.833 -0.40595341 0.04001369
0.833 -0.40731278 0.04001369
0.82999998 -0.40720031 0.03986958
0.829 -0.40806255 0.039821547
0.829 -0.40941539 0.039821547
0.82800001 -0.41027272 0.039773509
0.82599998 -0.41062963 0.039677437
0.82599998 -0.41197759 0.039677437
0.82499999 -0.41282514 0.039629404
0.82499999 -0.41417143 0.039629404
0.824 -0.41501409 0.039581366
0.82099998 -0.41484287 0.03943726
0.82099998 -0.41618264 0.03943726
0.82099998 -0.41752243 0.03943726
0.82099998 -0.41886219 0.03943726
0.82099998 -0.42020199 0.03943726
0.82300001 -0.42256868 0.039533332
0.82300001 -0.42391172 0.039533332
0.82300001 -0.42525476 0.039533332
0.82300001 -0.42659777 0.039533332
0.82300001 -0.42794082 0.039533332
0.82099998 -0.42824063 0.03943726
0.82099998 -0.42958042 0.03943726
0.82099998 -0.43092018 0.03943726
0.82099998 -0.43225995 0.03943726
0.82099998 -0.43359974 0.03943726
0.82099998 -0.4349395 0.03943726
0.81999999 -0.43574789 0.039389223
0.81999999 -0.43708605 0.039389223
0.81800002 -0.43735486 0.039293155
0.81800002 -0.43868974 0.039293155
0.81699997 -0.43948668 0.039245117
0.81599998 -0.44028038 0.03919708
0.81599998 -0.44161201 0.03919708
0.81599998 -0.4429436 0.03919708
0.81599998 -0.44427523 0.03919708
0.81699997 -0.44615293 0.039245117
0.81699997 -0.44748616 0.039245117
0.81699997 -0.44881943 0.039245117
0.81699997 -0.45015267 0.039245117
0.81699997 -0.4514859 0.039245117
0.81699997 -0.45281917 0.039245117
0.81699997 -0.45415241 0.039245117
0.81699997 -0.45548567 0.039245117
0.81699997 -0.45681891 0.039245117
0.81599998 -0.45759138 0.03919708
0.81599998 -0.45892301 0.03919708
0.81599998 -0.46025461 0.03919708
0.815 -0.46102059 0.039149046
0.815 -0.46235058 0.039149046
0.81400001 -0.46311161 0.039101012
0.81300002 -0.46386942 0.039052978
0.81300002 -0.46519613 0.039052978
0.81199998 -0.465949 0.039004937
0.81199998 -0.4672741 0.039004937
0.81099999 -0.46802211 0.038956903
0.81 -0.46876684 0.038908869
0.81 -0.47008866 0.038908869
0.81 -0.47141048 0.038908869
0.80900002 -0.47214869 0.038860835
0.80900002 -0.4734689 0.038860835
0.80900002 -0.47478908 0.038860835
0.80900002 -0.47610927 0.038860835
0.80699998 -0.47624916 0.03876476
0.80500001 -0.47638255 0.038668692
0.80500001 -0.47769621 0.038668692
0.80299997 -0.47781977 0.038572617
0.80299997 -0.47913018 0.038572617
0.80000001 -0.47864568 0.038428511
0.79900002 -0.47935125 0.038380478
0.79900002 -0.48065513 0.038380478
0.79799998 -0.48135576 0.03833244
0.79699999 -0.48205319 0.038284406
0.79699999 -0.48335379 0.038284406
0.796 -0.48404631 0.038236368
0.796 -0.4853453 0.038236368
0.79500002 -0.48603293 0.038188335
0.79400003 -0.48671728 0.038140301
0.79400003 -0.488013 0.038140301
0.79400003 -0.48930871 0.038140301
0.79400003 -0.49060443 0.038140301
0.79400003 -0.49190015 0.038140301
0.79400003 -0.49319586 0.038140301
0.796 -0.49573714 0.038236368
0.796 -0.4970361 0.038236368
0.796 -0.49833509 0.038236368
0.79699999 -0.50026172 0.038284406
0.79699999 -0.50156236 0.038284406
0.79699999 -0.50286293 0.038284406
0.79900002 -0.50542873 0.038380478
0.79900002 -0.50673264 0.038380478
0.79900002 -0.50803649 0.038380478
0.79900002 -0.50934035 0.038380478
0.80000001 -0.51128334 0.038428511
0.801 -0.51322955 0.038476549
0.801 -0.51453674 0.038476549
0.801 -0.51584387 0.038476549
0.801 -0.517151 0.038476549
0.801 -0.51845813 0.038476549
0.801 -0.51976526 0.038476549
0.801 -0.52107239 0.038476549
0.80199999 -0.52303171 0.038524583
0.80199999 -0.52434045 0.038524583
0.80199999 -0.52564925 0.038524583
0.80199999 -0.52695799 0.038524583
0.91600001 0.052862283 0.042505857
0.91600001 0.051367477 0.042505857
0.91600001 0.04987267 0.042505857
0.91600001 0.048377868 0.042505857
0.91600001 0.046883062 0.042505857
0.91399997 0.045289155 0.042413048
0.91399997 0.043797612 0.042413048
0.91399997 0.042306073 0.042413048
0.91399997 0.04081453 0.042413048
0.92900002 -0.014608363 0.043109108
0.92900002 -0.016124383 0.043109108
0.92900002 -0.017640403 0.043109108
0.92900002 -0.019156421 0.043109108
0.92900002 -0.020672441 0.043109108
0.93199998 -0.022260113 0.043248314
0.93199998 -0.023781028 0.043248314
0.935 -0.025383387 0.043387529
0.93699998 -0.026966756 0.043480333
0.935 -0.028435009 0.043387529
0.935 -0.029960819 0.043387529
0.935 -0.03148663 0.043387529
0.93400002 -0.032977134 0.043341126
0.93400002 -0.03450131 0.043341126
0.93400002 -0.036025491 0.043341126
0.93199998 -0.03746926 0.043248314
0.93199998 -0.038990177 0.043248314
0.93199998 -0.04051109 0.043248314
0.93199998 -0.042032007 0.043248314
0.93199998 -0.04355292 0.043248314
0.93099999 -0.045025475 0.043201912
0.92900002 -0.04644477 0.043109108
0.92900002 -0.047960792 0.043109108
0.92900002 -0.04947681 0.043109108
0.92900002 -0.050992828 0.043109108
0.92799997 -0.052452322 0.043062702
0.92699999 -0.053908557 0.043016296
0.92699999 -0.055421315 0.043016296
0.92500001 -0.056811236 0.042923491
0.92400002 -0.05825768 0.042877086
0.92400002 -0.05976554 0.042877086
0.92199999 -0.061140772 0.042784277
0.92199999 -0.062645368 0.042784277
0.92000002 -0.064010814 0.042691473
0.91799998 -0.065369725 0.042598661
0.91799998 -0.066867791 0.042598661
0.91799998 -0.068365857 0.042598661
0.91799998 -0.06986393 0.042598661
0.917 -0.071284264 0.042552259
0.91600001 -0.072701335 0.042505857
0.91600001 -0.074196137 0.042505857
0.91399997 -0.075525671 0.042413048
0.91299999 -0.076932952 0.042366643
0.91299999 -0.078422859 0.042366643
0.912 -0.079825245 0.04232024
0.912 -0.081313521 0.04232024
0.91000003 -0.082620218 0.042227436
0.90899998 -0.084012806 0.04218103
0.90899998 -0.085496187 0.04218103
0.90899998 -0.086979568 0.04218103
0.90899998 -0.088462949 0.04218103
0.90899998 -0.08994633 0.04218103
0.90899998 -0.09142971 0.04218103
0.90899998 -0.092913099 0.04218103
0.90799999 -0.094292633 0.042134624
0.90799999 -0.095774382 0.042134624
0.90799999 -0.097256131 0.042134624
0.90799999 -0.098737881 0.042134624
0.90899998 -0.10033 0.04218103
0.90899998 -0.10181338 0.04218103
0.90899998 -0.10329676 0.04218103
0.91000003 -0.10489542 0.042227436
0.91000003 -0.10638044 0.042227436
0.91000003 -0.10786545 0.042227436
0.91000003 -0.10935047 0.042227436
0.91000003 -0.11083548 0.042227436
0.912 -0.11256735 0.04232024
0.91299999 -0.11418068 0.042366643
0.91299999 -0.11567059 0.042366643
0.91399997 -0.11728883 0.042413048
0.91399997 -0.11878037 0.042413048
0.91399997 -0.12027191 0.042413048
0.91399997 -0.12176345 0.042413048
0.91399997 -0.12325499 0.042413048
0.91399997 -0.12474653 0.042413048
0.91399997 -0.12623808 0.042413048
0.91399997 -0.12772961 0.042413048
0.91399997 -0.12922116 0.042413048
0.91399997 -0.13071269 0.042413048
0.91299999 -0.13205959 0.042366643
0.91299999 -0.1335495 0.042366643
0.91299999 -0.13503942 0.042366643
0.91000003 -0.13608071 0.042227436
0.91000003 -0.13756572 0.042227436
0.90899998 -0.13889793 0.04218103
0.90600002 -0.13991801 0.04204182
0.90600002 -0.14139649 0.04204182
0.90600002 -0.14287499 0.04204182
0.90600002 -0.14435346 0.04204182
0.90499997 -0.14567098 0.041995414
0.90499997 -0.14714783 0.041995414
0.90499997 -0.14862469 0.041995414
0.90399998 -0.14993569 0.041949011
0.90399998 -0.15141091 0.041949011
0.90399998 -0.15288614 0.041949011
0.90399998 -0.15436135 0.041949011
0.90399998 -0.15583658 0.041949011
0.90200001 -0.15696377 0.041856203
0.90200001 -0.15843573 0.041856203
0.90399998 -0.16026224 0.041949011
0.90399998 -0.16173747 0.041949011
0.90200001 -0.1628516 0.041856203
0.90200001 -0.16432357 0.041856203
0.90200001 -0.16579552 0.041856203
0.90200001 -0.16726749 0.041856203
0.90100002 -0.16855237 0.041809801
0.90100002 -0.1700227 0.041809801
0.90100002 -0.17149302 0.041809801
0.89999998 -0.17277138 0.041763395
0.89999998 -0.17424007 0.041763395
0.89999998 -0.17570876 0.041763395
0.898 -0.17678374 0.041670587
0.898 -0.17824917 0.041670587
0.89700001 -0.17951447 0.041624185
0.89600003 -0.18077652 0.041577782
0.89600003 -0.18223868 0.041577782
0.89399999 -0.18329079 0.041484974
0.89300001 -0.18454304 0.041438568
0.89300001 -0.18600032 0.041438568
0.89200002 -0.18724768 0.041392166
0.89200002 -0.18870331 0.041392166
0.88999999 -0.18973258 0.041299358
0.88800001 -0.19075534 0.04120655
0.88800001 -0.19220445 0.04120655
0.88499999 -0.19299932 0.041067339
0.88499999 -0.19444354 0.041067339
0.884 -0.19566642 0.041020934
0.88200003 -0.19666305 0.040928129
0.88200003 -0.19810237 0.040928129
0.88 -0.19908921 0.040835321
0.87900001 -0.2002974 0.040788915
0.87900001 -0.20173183 0.040788915
0.87800002 -0.20293513 0.040742513
0.87800002 -0.20436792 0.040742513
0.87800002 -0.20580071 0.040742513
0.87599999 -0.20676143 0.040649705
0.87599999 -0.20819096 0.040649705
0.87599999 -0.20962049 0.040649705
0.87599999 -0.21105002 0.040649705
0.87599999 -0.21247956 0.040649705
0.87599999 -0.21390909 0.040649705
0.87599999 -0.21533862 0.040649705
0.875 -0.2165207 0.040603302
0.875 -0.21794859 0.040603302
0.875 -0.21937649 0.040603302
0.875 -0.22080439 0.040603302
0.875 -0.22223228 0.040603302
0.875 -0.22366019 0.040603302
0.87300003 -0.2245736 0.040510494
0.87300003 -0.22599824 0.040510494
0.87300003 -0.22742286 0.040510494
0.87199998 -0.22858535 0.040464088
0.87199998 -0.23000835 0.040464088
0.87 -0.23090056 0.040371284
0.87 -0.23232029 0.040371284
0.87 -0.23374003 0.040371284
0.86900002 -0.23488948 0.040324878
0.86900002 -0.23630758 0.040324878
0.86799997 -0.23745212 0.040278472
0.86799997 -0.23886859 0.040278472
0.86799997 -0.24028507 0.040278472
0.86500001 -0.24086617 0.040139265
0.86400002 -0.24199766 0.040092859
0.86400002 -0.24340761 0.040092859
0.86400002 -0.24481755 0.040092859
0.86400002 -0.2462275 0.040092859
0.86299998 -0.24735083 0.040046453
0.86199999 -0.24847089 0.040000051
0.86199999 -0.24987757 0.040000051
0.861 -0.25099275 0.039953649
0.861 -0.25239781 0.039953649
0.861 -0.25380287 0.039953649
0.861 -0.2552079 0.039953649
0.861 -0.25661296 0.039953649
0.861 -0.25801802 0.039953649
0.85900003 -0.25882044 0.039860841
0.85900003 -0.26022226 0.039860841
0.85900003 -0.26162404 0.039860841
0.85900003 -0.26302582 0.039860841
0.85900003 -0.2644276 0.039860841
0.85900003 -0.26582938 0.039860841
0.85900003 -0.2672312 0.039860841
0.85900003 -0.26863298 0.039860841
0.85900003 -0.27003476 0.039860841
0.85900003 -0.27143654 0.039860841
0.85900003 -0.27283832 0.039860841
0.85900003 -0.27424011 0.039860841
0.85900003 -0.27564192 0.039860841
0.85900003 -0.2770437 0.039860841
0.85900003 -0.27844548 0.039860841
0.85900003 -0.27984726 0.039860841
0.85900003 -0.28124905 0.039860841
0.85900003 -0.28265086 0.039860841
0.85900003 -0.28405264 0.039860841
0.85900003 -0.28545442 0.039860841
0.861 -0.28752407 0.039953649
0.861 -0.28892913 0.039953649
0.861 -0.29033419 0.039953649
0.85900003 -0.29106158 0.039860841
0.85900003 -0.29246336 0.039860841
0.85900003 -0.29386514 0.039860841
0.85900003 -0.29526693 0.039860841
0.85900003 -0.29666871 0.039860841
0.85900003 -0.29807052 0.039860841
0.85799998 -0.29912364 0.039814435
0.85799998 -0.30052382 0.039814435
0.85699999 -0.30157208 0.039768033
0.85600001 -0.30261707 0.039721631
0.85600001 -0.30401397 0.039721631
0.85299999 -0.30434048 0.039582416
0.85299999 -0.30573249 0.039582416
0.85100001 -0.30640438 0.039489612
0.84899998 -0.30706975 0.039396804
0.84899998 -0.3084552 0.039396804
0.84899998 -0.30984068 0.039396804
0.84600002 -0.31012642 0.039257593
0.84600002 -0.31150699 0.039257593
0.84500003 -0.31251773 0.039211191
0.84500003 -0.31389666 0.039211191
0.84399998 -0.31490248 0.039164785
0.84200001 -0.31553033 0.039071977
0.84200001 -0.31690437 0.039071977
0.84200001 -0.31827843 0.039071977
0.84100002 -0.31927285 0.039025575
0.84100002 -0.32064524 0.039025575
0.84100002 -0.32201767 0.039025575
0.84100002 -0.32339007 0.039025575
0.84100002 -0.32476249 0.039025575
0.84100002 -0.32613489 0.039025575
0.84100002 -0.32750732 0.039025575
0.84100002 -0.32887974 0.039025575
0.83899999 -0.32946676 0.038932763
0.83899999 -0.33083591 0.038932763
0.83899999 -0.33220506 0.038932763
0.83899999 -0.33357421 0.038932763
0.83899999 -0.33494335 0.038932763
0.838 -0.33591166 0.038886361
0.838 -0.33727917 0.038886361
0.838 -0.33864668 0.038886361
0.838 -0.34001422 0.038886361
0.838 -0.34138173 0.038886361
0.83700001 -0.34234023 0.038839959
0.83700001 -0.34370613 0.038839959
0.83700001 -0.345072 0.038839959
0.83700001 -0.3464379 0.038839959
0.83700001 -0.3478038 0.038839959
0.83600003 -0.3487525 0.038793556
0.83499998 -0.34969795 0.03874715
0.83499998 -0.35106057 0.03874715
0.83499998 -0.35242319 0.03874715
0.83499998 -0.35378581 0.03874715
0.83499998 -0.35514843 0.03874715
0.83499998 -0.35651106 0.03874715
0.83499998 -0.35787368 0.03874715
0.83499998 -0.3592363 0.03874715
0.83499998 -0.36059892 0.03874715
0.83499998 -0.36196154 0.03874715
0.83499998 -0.36332417 0.03874715
0.83600003 -0.36512357 0.038793556
0.83600003 -0.36648783 0.038793556
0.83399999 -0.36697203 0.038700745
0.83399999 -0.36833301 0.038700745
0.83399999 -0.36969399 0.038700745
0.83399999 -0.37105501 0.038700745
0.83499998 -0.37286252 0.03874715
0.83499998 -0.37422514 0.03874715
0.83499998 -0.37558776 0.03874715
0.83499998 -0.37695038 0.03874715
0.83600003 -0.37876612 0.038793556
0.83600003 -0.38013035 0.038793556
0.83600003 -0.38149461 0.038793556
0.83499998 -0.38240087 0.03874715
0.83499998 -0.38376349 0.03874715
0.83499998 -0.38512611 0.03874715
0.83499998 -0.38648874 0.03874715
0.83499998 -0.38785136 0.03874715
0.83600003 -0.38968015 0.038793556
0.83600003 -0.39104441 0.038793556
0.83600003 -0.39240864 0.038793556
0.83499998 -0.39330187 0.03874715
0.83499998 -0.3946645 0.03874715
0.83499998 -0.39602712 0.03874715
0.83499998 -0.39738974 0.03874715
0.83399999 -0.39827481 0.038700745
0.833 -0.39915663 0.038654342
0.833 -0.40051597 0.038654342
0.833 -0.40187535 0.038654342
0.83099997 -0.40226653 0.038561534
0.83099997 -0.40362263 0.038561534
0.82999998 -0.40449139 0.038515132
0.82999998 -0.40584585 0.038515132
0.829 -0.40670973 0.038468726
0.82800001 -0.40757033 0.038422324
0.82800001 -0.40892151 0.038422324
0.82599998 -0.4092817 0.038329516
0.82499999 -0.41013253 0.038283113
0.82499999 -0.41147882 0.038283113
0.82300001 -0.41182435 0.038190305
0.82300001 -0.41316739 0.038190305
0.82099998 -0.41350311 0.038097497
0.81999999 -0.41433761 0.038051095
0.81999999 -0.41567573 0.038051095
0.81999999 -0.41701388 0.038051095
0.81999999 -0.41835204 0.038051095
0.81999999 -0.41969016 0.038051095
0.81999999 -0.42102832 0.038051095
0.82099998 -0.42288154 0.038097497
0.82099998 -0.42422131 0.038097497
0.82099998 -0.42556107 0.038097497
0.82099998 -0.42690086 0.038097497
0.82099998 -0.42824063 0.038097497
0.82099998 -0.42958042 0.038097497
0.81999999 -0.43039531 0.038051095
0.81999999 -0.43173346 0.038051095
0.81999999 -0.43307161 0.038051095
0.81999999 -0.43440974 0.038051095
0.81800002 -0.43468511 0.037958287
0.81800002 -0.43601999 0.037958287
0.81599998 -0.43628553 0.037865479
0.81599998 -0.43761715 0.037865479
0.815 -0.43841085 0.037819076
0.81400001 -0.43920127 0.03777267
0.81400001 -0.44052961 0.03777267
0.81400001 -0.44185796 0.03777267
0.81400001 -0.44318634 0.03777267
0.815 -0.44506076 0.037819076
0.815 -0.44639075 0.037819076
0.81599998 -0.44827008 0.037865479
0.815 -0.44905072 0.037819076
0.815 -0.45038071 0.037819076
0.81599998 -0.45226493 0.037865479
0.81599998 -0.45359653 0.037865479
0.81599998 -0.45492816 0.037865479
0.81599998 -0.45625979 0.037865479
0.81400001 -0.45646986 0.03777267
0.81400001 -0.45779821 0.03777267
0.81400001 -0.45912656 0.03777267
0.81400001 -0.46045491 0.03777267
0.81400001 -0.46178326 0.03777267
0.81199998 -0.46197373 0.037679862
0.81099999 -0.46272826 0.03763346
0.81099999 -0.46405172 0.03763346
0.81 -0.46480137 0.037587058
0.81 -0.46612319 0.037587058
0.80900002 -0.46686792 0.037540652
0.80699998 -0.46703064 0.037447844
0.80699998 -0.46834758 0.037447844
0.80699998 -0.46966451 0.037447844
0.80599999 -0.47039783 0.037401441
0.80599999 -0.47171313 0.037401441
0.80599999 -0.47302842 0.037401441
0.80599999 -0.47434372 0.037401441
0.80500001 -0.47506887 0.037355039
0.80299997 -0.47519895 0.037262227
0.80299997 -0.47650936 0.037262227
0.80199999 -0.47722474 0.037215825
0.80199999 -0.47853351 0.037215825
0.80000001 -0.47864568 0.037123017
0.79799998 -0.47875127 0.037030209
0.79799998 -0.48005351 0.037030209
0.79699999 -0.48075259 0.036983807
0.79699999 -0.48205319 0.036983807
0.79699999 -0.48335379 0.036983807
0.796 -0.48404631 0.036937404
0.796 -0.4853453 0.036937404
0.79500002 -0.48603293 0.036890998
0.79400003 -0.48671728 0.036844596
0.79400003 -0.488013 0.036844596
0.79400003 -0.48930871 0.036844596
0.79400003 -0.49060443 0.036844596
0.79400003 -0.49190015 0.036844596
0.79400003 -0.49319586 0.036844596
0.796 -0.49573714 0.036937404
0.796 -0.4970361 0.036937404
0.796 -0.49833509 0.036937404
0.79699999 -0.50026172 0.036983807
0.79699999 -0.50156236 0.036983807
0.79699999 -0.50286293 0.036983807
0.79900002 -0.50542873 0.037076615
0.79900002 -0.50673264 0.037076615
0.79900002 -0.50803649 0.037076615
0.79900002 -0.50934035 0.037076615
0.80000001 -0.51128334 0.037123017
0.801 -0.51322955 0.037169423
0.801 -0.51453674 0.037169423
0.801 -0.51584387 0.037169423
0.801 -0.517151 0.037169423
0.801 -0.51845813 0.037169423
0.801 -0.51976526 0.037169423
0.801 -0.52107239 0.037169423
0.80199999 -0.52303171 0.037215825
0.80199999 -0.52434045 0.037215825
0.80199999 -0.52564925 0.037215825
0.80199999 -0.52695799 0.037215825
0.91600001 0.052862283 0.041011065
0.91600001 0.051367477 0.041011065
0.91600001 0.04987267 0.041011065
0.91600001 0.048377868 0.041011065
0.91600001 0.046883062 0.041011065
0.91399997 0.045289155 0.04092152
0.91399997 0.043797612 0.04092152
0.91600001 0.042398646 0.041011065
0.91600001 0.04090384 0.041011065
0.92799997 -0.014592637 0.041548327
0.92799997 -0.016107025 0.041548327
0.92900002 -0.017640403 0.041593101
0.92900002 -0.019156421 0.041593101
0.92900002 -0.020672441 0.041593101
0.93199998 -0.022260113 0.041727416
0.93199998 -0.023781028 0.041727416
0.935 -0.025383387 0.041861732
0.93699998 -0.026966756 0.041951276
0.93699998 -0.028495831 0.041951276
0.935 -0.029960819 0.041861732
0.935 -0.03148663 0.041861732
0.93400002 -0.032977134 0.041816961
0.93400002 -0.03450131 0.041816961
0.93400002 -0.036025491 0.041816961
0.93400002 -0.037549671 0.041816961
0.93400002 -0.039073847 0.041816961
0.93400002 -0.040598027 0.041816961
0.93199998 -0.042032007 0.041727416
0.93199998 -0.04355292 0.041727416
0.93099999 -0.045025475 0.041682646
0.93099999 -0.046544757 0.041682646
0.93099999 -0.048064042 0.041682646
0.92900002 -0.04947681 0.041593101
0.92900002 -0.050992828 0.041593101
0.92799997 -0.052452322 0.041548327
0.92699999 -0.053908557 0.041503556
0.92699999 -0.055421315 0.041503556
0.92500001 -0.056811236 0.041414015
0.92400002 -0.05825768 0.041369241
0.92400002 -0.05976554 0.041369241
0.921 -0.061074458 0.041234925
0.921 -0.062577419 0.041234925
0.92000002 -0.064010814 0.041190155
0.91799998 -0.065369725 0.04110061
0.91799998 -0.066867791 0.04110061
0.917 -0.068291388 0.041055836
0.917 -0.069787823 0.041055836
0.91600001 -0.071206525 0.041011065
0.91600001 -0.072701335 0.041011065
0.91600001 -0.074196137 0.041011065
0.91299999 -0.075443044 0.04087675
0.912 -0.076848693 0.040831979
0.912 -0.078336969 0.040831979
0.91000003 -0.079650193 0.040742435
0.91000003 -0.081135206 0.040742435
0.90899998 -0.082529426 0.04069766
0.90899998 -0.084012806 0.04069766
0.90899998 -0.085496187 0.04069766
0.90899998 -0.086979568 0.04069766
0.90799999 -0.088365629 0.04065289
0.90799999 -0.089847386 0.04065289
0.90799999 -0.091329135 0.04065289
0.90799999 -0.092810884 0.04065289
0.90799999 -0.094292633 0.04065289
0.90799999 -0.095774382 0.04065289
0.90799999 -0.097256131 0.04065289
0.90799999 -0.098737881 0.04065289
0.90899998 -0.10033 0.04069766
0.90899998 -0.10181338 0.04069766
0.90899998 -0.10329676 0.04069766
0.91000003 -0.10489542 0.040742435
0.91000003 -0.10638044 0.040742435
0.91000003 -0.10786545 0.040742435
0.91000003 -0.10935047 0.040742435
0.91000003 -0.11083548 0.040742435
0.912 -0.11256735 0.040831979
0.912 -0.11405563 0.040831979
0.912 -0.1155439 0.040831979
0.91399997 -0.11728883 0.04092152
0.91399997 -0.11878037 0.04092152
0.91399997 -0.12027191 0.04092152
0.91399997 -0.12176345 0.04092152
0.91299999 -0.12312014 0.04087675
0.91299999 -0.12461005 0.04087675
0.91299999 -0.12609996 0.04087675
0.91299999 -0.12758987 0.04087675
0.912 -0.12893839 0.040831979
0.912 -0.13042668 0.040831979
0.912 -0.13191496 0.040831979
0.912 -0.13340323 0.040831979
0.91000003 -0.13459569 0.040742435
0.90899998 -0.13593116 0.04069766
0.90899998 -0.13741454 0.04069766
0.90799999 -0.13874513 0.04065289
0.90600002 -0.13991801 0.040563349
0.90600002 -0.14139649 0.040563349
0.90499997 -0.14271727 0.040518574
0.90499997 -0.14419413 0.040518574
0.90499997 -0.14567098 0.040518574
0.90399998 -0.14698525 0.040473804
0.90399998 -0.14846046 0.040473804
0.90200001 -0.14960398 0.040384259
0.90200001 -0.15107594 0.040384259
0.90200001 -0.1525479 0.040384259
0.90100002 -0.15384911 0.040339489
0.90100002 -0.15531944 0.040339489
0.90100002 -0.15678975 0.040339489
0.90100002 -0.15826008 0.040339489
0.90200001 -0.15990768 0.040384259
0.90100002 -0.16120073 0.040339489
0.90100002 -0.16267106 0.040339489
0.90100002 -0.16414139 0.040339489
0.90100002 -0.16561171 0.040339489
0.90100002 -0.16708204 0.040339489
0.90100002 -0.16855237 0.040339489
0.89999998 -0.16983399 0.040294714
0.89999998 -0.17130268 0.040294714
0.89999998 -0.17277138 0.040294714
0.898 -0.17385288 0.040205173
0.898 -0.1753183 0.040205173
0.898 -0.17678374 0.040205173
0.898 -0.17824917 0.040205173
0.89600003 -0.17931435 0.040115628
0.89399999 -0.18037298 0.040026084
0.89399999 -0.1818319 0.040026084
0.89200002 -0.18288076 0.039936543
0.89200002 -0.18433639 0.039936543
0.88999999 -0.18537545 0.039846994
0.889 -0.18661791 0.039802223
0.889 -0.18806866 0.039802223
0.88800001 -0.18930621 0.039757453
0.884 -0.18989608 0.039578363
0.884 -0.19133866 0.039578363
0.88300002 -0.19256316 0.039533593
0.88300002 -0.19400412 0.039533593
0.88 -0.19478104 0.039399277
0.87900001 -0.19599412 0.039354507
0.87900001 -0.19742855 0.039354507
0.87800002 -0.19863674 0.039309733
0.87599999 -0.19961379 0.039220188
0.87599999 -0.20104332 0.039220188
0.875 -0.20224172 0.039175417
0.875 -0.20366962 0.039175417
0.875 -0.20509751 0.039175417
0.87400001 -0.20628938 0.039130647
0.87400001 -0.20771565 0.039130647
0.87400001 -0.20914191 0.039130647
0.87400001 -0.21056819 0.039130647
0.87400001 -0.21199445 0.039130647
0.87400001 -0.21342072 0.039130647
0.87400001 -0.21484698 0.039130647
0.87400001 -0.21627325 0.039130647
0.87300003 -0.21745043 0.039085876
0.87300003 -0.21887507 0.039085876
0.87300003 -0.22029971 0.039085876
0.87300003 -0.22172433 0.039085876
0.87300003 -0.22314897 0.039085876
0.87199998 -0.22431634 0.039041102
0.87199998 -0.22573934 0.039041102
0.87 -0.22664134 0.038951557
0.87 -0.22806108 0.038951557
0.87 -0.22948082 0.038951557
0.86900002 -0.23063515 0.038906787
0.86799997 -0.23178622 0.038862012
0.86799997 -0.2332027 0.038862012
0.86799997 -0.23461917 0.038862012
0.86799997 -0.23603565 0.038862012
0.86799997 -0.23745212 0.038862012
0.86699998 -0.2385934 0.038817242
0.86699998 -0.24000823 0.038817242
0.86500001 -0.24086617 0.038727701
0.86400002 -0.24199766 0.038682926
0.86400002 -0.24340761 0.038682926
0.86299998 -0.24453419 0.038638152
0.86299998 -0.2459425 0.038638152
0.86199999 -0.2470642 0.038593382
0.861 -0.24818265 0.038548611
0.861 -0.2495877 0.038548611
0.861 -0.25099275 0.038548611
0.861 -0.25239781 0.038548611
0.85900003 -0.25321332 0.03845907
0.85900003 -0.2546151 0.03845907
0.85900003 -0.25601688 0.03845907
0.85799998 -0.25711897 0.038414296
0.85799998 -0.25851914 0.038414296
0.85799998 -0.25991929 0.038414296
0.85799998 -0.26131946 0.038414296
0.85799998 -0.2627196 0.038414296
0.85799998 -0.26411977 0.038414296
0.85799998 -0.26551992 0.038414296
0.85799998 -0.26692006 0.038414296
0.85799998 -0.26832023 0.038414296
0.85799998 -0.26972038 0.038414296
0.85799998 -0.27112055 0.038414296
0.85799998 -0.27252069 0.038414296
0.85799998 -0.27392086 0.038414296
0.85799998 -0.27532101 0.038414296
0.85799998 -0.27672115 0.038414296
0.85900003 -0.27844548 0.03845907
0.85900003 -0.27984726 0.03845907
0.85900003 -0.28124905 0.03845907
0.85900003 -0.28265086 0.03845907
0.85900003 -0.28405264 0.03845907
0.85900003 -0.28545442 0.03845907
0.85900003 -0.2868562 0.03845907
0.85900003 -0.28825799 0.03845907
0.85900003 -0.2896598 0.03845907
0.85900003 -0.29106158 0.03845907
0.85900003 -0.29246336 0.03845907
0.85900003 -0.29386514 0.03845907
0.85900003 -0.29526693 0.03845907
0.85799998 -0.29632333 0.038414296
0.85799998 -0.2977235 0.038414296
0.85799998 -0.29912364 0.038414296
0.85799998 -0.30052382 0.038414296
0.85699999 -0.30157208 0.038369521
0.85500002 -0.30226356 0.03827998
0.85500002 -0.30365881 0.03827998
0.85299999 -0.30434048 0.038190436
0.85299999 -0.30573249 0.038190436
0.85100001 -0.30640438 0.038100891
0.84899998 -0.30706975 0.038011346
0.84899998 -0.3084552 0.038011346
0.84600002 -0.30874586 0.037877034
0.84399998 -0.30939326 0.037787486
0.84399998 -0.31077057 0.037787486
0.84299999 -0.31177804 0.037742715
0.84299999 -0.31315371 0.037742715
0.84100002 -0.31378317 0.037653174
0.83899999 -0.3144061 0.037563629
0.83899999 -0.31577525 0.037563629
0.838 -0.31676641 0.037518855
0.83700001 -0.3177543 0.037474085
0.83700001 -0.31912017 0.037474085
0.83700001 -0.32048607 0.037474085
0.83700001 -0.32185194 0.037474085
0.83600003 -0.32283169 0.037429314
0.83600003 -0.32419592 0.037429314
0.83700001 -0.32594961 0.037474085
0.83600003 -0.32692444 0.037429314
0.83600003 -0.3282887 0.037429314
0.83600003 -0.32965297 0.037429314
0.83600003 -0.3310172 0.037429314
0.83600003 -0.33238146 0.037429314
0.83600003 -0.33374572 0.037429314
0.83499998 -0.33470911 0.03738454
0.83499998 -0.33607173 0.03738454
0.83499998 -0.33743435 0.03738454
0.83399999 -0.33839121 0.037339769
0.83399999 -0.33975223 0.037339769
0.83399999 -0.34111321 0.037339769
0.83399999 -0.34247419 0.037339769
0.83399999 -0.34383518 0.037339769
0.83399999 -0.34519619 0.037339769
0.83399999 -0.34655717 0.037339769
0.833 -0.34750101 0.037294999
0.833 -0.34886035 0.037294999
0.833 -0.35021973 0.037294999
0.83099997 -0.35073492 0.037205454
0.83099997 -0.35209101 0.037205454
0.83099997 -0.35344711 0.037205454
0.833 -0.35565716 0.037294999
0.833 -0.3570165 0.037294999
0.833 -0.35837588 0.037294999
0.833 -0.35973522 0.037294999
0.833 -0.36109459 0.037294999
0.833 -0.36245394 0.037294999
0.833 -0.36381331 0.037294999
0.833 -0.36517265 0.037294999
0.83399999 -0.36697203 0.037339769
0.83399999 -0.36833301 0.037339769
0.83399999 -0.36969399 0.037339769
0.83399999 -0.37105501 0.037339769
0.83499998 -0.37286252 0.03738454
0.83499998 -0.37422514 0.03738454
0.83499998 -0.37558776 0.03738454
0.83499998 -0.37695038 0.03738454
0.83600003 -0.37876612 0.037429314
0.83600003 -0.38013035 0.037429314
0.83600003 -0.38149461 0.037429314
0.83499998 -0.38240087 0.03738454
0.83499998 -0.38376349 0.03738454
0.83499998 -0.38512611 0.03738454
0.83499998 -0.38648874 0.03738454
0.83499998 -0.38785136 0.03738454
0.83600003 -0.38968015 0.037429314
0.83600003 -0.39104441 0.037429314
0.83600003 -0.39240864 0.037429314
0.83499998 -0.39330187 0.03738454
0.83499998 -0.3946645 0.03738454
0.83499998 -0.39602712 0.03738454
0.83499998 -0.39738974 0.03738454
0.83399999 -0.39827481 0.037339769
0.833 -0.39915663 0.037294999
0.833 -0.40051597 0.037294999
0.833 -0.40187535 0.037294999
0.83099997 -0.40226653 0.037205454
0.83099997 -0.40362263 0.037205454
0.82999998 -0.40449139 0.03716068
0.82999998 -0.40584585 0.03716068
0.829 -0.40670973 0.037115909
0.82800001 -0.40757033 0.037071139
0.82800001 -0.40892151 0.037071139
0.82599998 -0.4092817 0.036981594
0.82499999 -0.41013253 0.036936823
0.82499999 -0.41147882 0.036936823
0.82300001 -0.41182435 0.036847278
0.82300001 -0.41316739 0.036847278
0.82099998 -0.41350311 0.036757734
0.81999999 -0.41433761 0.036712963
0.81999999 -0.41567573 0.036712963
0.81999999 -0.41701388 0.036712963
0.81999999 -0.41835204 0.036712963
0.81999999 -0.41969016 0.036712963
0.81999999 -0.42102832 0.036712963
0.82099998 -0.42288154 0.036757734
0.82099998 -0.42422131 0.036757734
0.82099998 -0.42556107 0.036757734
0.82099998 -0.42690086 0.036757734
0.82099998 -0.42824063 0.036757734
0.82099998 -0.42958042 0.036757734
0.81999999 -0.43039531 0.036712963
0.81999999 -0.43173346 0.036712963
0.81999999 -0.43307161 0.036712963
0.81999999 -0.43440974 0.036712963
0.81800002 -0.43468511 0.036623418
0.81800002 -0.43601999 0.036623418
0.81599998 -0.43628553 0.036533874
0.81599998 -0.43761715 0.036533874
0.815 -0.43841085 0.036489103
0.81400001 -0.43920127 0.036444332
0.81400001 -0.44052961 0.036444332
0.81400001 -0.44185796 0.036444332
0.81400001 -0.44318634 0.036444332
0.815 -0.44506076 0.036489103
0.815 -0.44639075 0.036489103
0.81599998 -0.44827008 0.036533874
0.815 -0.44905072 0.036489103
0.815 -0.45038071 0.036489103
0.81599998 -0.45226493 0.036533874
0.81599998 -0.45359653 0.036533874
0.81599998 -0.45492816 0.036533874
0.81599998 -0.45625979 0.036533874
0.81400001 -0.45646986 0.036444332
0.81400001 -0.45779821 0.036444332
0.81400001 -0.45912656 0.036444332
0.81400001 -0.46045491 0.036444332
0.81400001 -0.46178326 0.036444332
0.81199998 -0.46197373 0.036354788
0.81099999 -0.46272826 0.036310013
0.81099999 -0.46405172 0.036310013
0.81 -0.46480137 0.036265243
0.81 -0.46612319 0.036265243
0.80900002 -0.46686792 0.036220472
0.80699998 -0.46703064 0.036130928
0.80699998 -0.46834758 0.036130928
0.80699998 -0.46966451 0.036130928
0.80599999 -0.47039783 0.036086157
0.80599999 -0.47171313 0.036086157
0.80599999 -0.47302842 0.036086157
0.80599999 -0.47434372 0.036086157
0.80500001 -0.47506887 0.036041383
0.80299997 -0.47519895 0.035951838
0.80299997 -0.47650936 0.035951838
0.80199999 -0.47722474 0.035907067
0.80199999 -0.47853351 0.035907067
0.80000001 -0.47864568 0.035817526
0.79799998 -0.47875127 0.035727981
0.79799998 -0.48005351 0.035727981
0.79699999 -0.48075259 0.035683207
0.79699999 -0.48205319 0.035683207
0.79699999 -0.48335379 0.035683207
0.796 -0.48404631 0.035638437
0.796 -0.4853453 0.035638437
0.79500002 -0.48603293 0.035593666
0.79400003 -0.48671728 0.035548896
0.79400003 -0.488013 0.035548896
0.79400003 -0.48930871 0.035548896
0.79400003 -0.49060443 0.035548896
0.79500002 -0.49251965 0.035593666
0.79500002 -0.493817 0.035593666
0.796 -0.49573714 0.035638437
0.796 -0.4970361 0.035638437
0.79699999 -0.49896112 0.035683207
0.79799998 -0.50088942 0.035727981
0.79799998 -0.50219166 0.035727981
0.79799998 -0.50349391 0.035727981
0.80000001 -0.50606132 0.035817526
0.80000001 -0.50736684 0.035817526
0.80000001 -0.5086723 0.035817526
0.80000001 -0.50997782 0.035817526
0.801 -0.51192242 0.035862297
0.801 -0.51322955 0.035862297
0.801 -0.51453674 0.035862297
0.80199999 -0.51648784 0.035907067
0.80199999 -0.51779664 0.035907067
0.80199999 -0.51910537 0.035907067
0.80199999 -0.52041417 0.035907067
0.80199999 -0.52172291 0.035907067
0.80199999 -0.52303171 0.035907067
0.80199999 -0.52434045 0.035907067
0.80199999 -0.52564925 0.035907067
0.80199999 -0.52695799 0.035907067
0.91600001 0.052862283 0.039516278
0.91600001 0.051367477 0.039516278
0.91600001 0.04987267 0.039516278
0.91600001 0.048377868 0.039516278
0.91600001 0.046883062 0.039516278
0.91399997 0.045289155 0.039429992
0.91399997 0.043797612 0.039429992
0.91600001 0.042398646 0.039516278
0.91600001 0.04090384 0.039516278
0.92799997 -0.011563863 0.040033955
0.92799997 -0.014592637 0.040033955
0.92799997 -0.016107025 0.040033955
0.92900002 -0.017640403 0.040077098
0.92900002 -0.019156421 0.040077098
0.92900002 -0.020672441 0.040077098
0.93199998 -0.022260113 0.040206514
0.93199998 -0.023781028 0.040206514
0.935 -0.025383387 0.040335935
0.93699998 -0.026966756 0.040422216
0.93699998 -0.028495831 0.040422216
0.935 -0.029960819 0.040335935
0.935 -0.03148663 0.040335935
0.93400002 -0.032977134 0.040292796
0.93400002 -0.03450131 0.040292796
0.93400002 -0.036025491 0.040292796
0.93400002 -0.037549671 0.040292796
0.93400002 -0.039073847 0.040292796
0.93400002 -0.040598027 0.040292796
0.93400002 -0.042122208 0.040292796
0.93400002 -0.043646384 0.040292796
0.93199998 -0.045073837 0.040206514
0.93099999 -0.046544757 0.040163375
0.93099999 -0.048064042 0.040163375
0.92900002 -0.04947681 0.040077098
0.92900002 -0.050992828 0.040077098
0.92900002 -0.05250885 0.040077098
0.92699999 -0.053908557 0.039990816
0.92699999 -0.055421315 0.039990816
0.92500001 -0.056811236 0.039904535
0.92400002 -0.05825768 0.039861396
0.92400002 -0.05976554 0.039861396
0.921 -0.061074458 0.039731976
0.921 -0.062577419 0.039731976
0.92000002 -0.064010814 0.039688837
0.91799998 -0.065369725 0.039602555
0.91799998 -0.066867791 0.039602555
0.917 -0.068291388 0.039559416
0.917 -0.069787823 0.039559416
0.91600001 -0.071206525 0.039516278
0.91600001 -0.072701335 0.039516278
0.91600001 -0.074196137 0.039516278
0.91299999 -0.075443044 0.039386854
0.912 -0.076848693 0.039343715
0.912 -0.078336969 0.039343715
0.91000003 -0.079650193 0.039257437
0.91000003 -0.081135206 0.039257437
0.90899998 -0.082529426 0.039214294
0.90899998 -0.084012806 0.039214294
0.90899998 -0.085496187 0.039214294
0.90899998 -0.086979568 0.039214294
0.90799999 -0.088365629 0.039171156
0.90799999 -0.089847386 0.039171156
0.90799999 -0.091329135 0.039171156
0.90799999 -0.092810884 0.039171156
0.90799999 -0.094292633 0.039171156
0.90799999 -0.095774382 0.039171156
0.90799999 -0.097256131 0.039171156
0.90799999 -0.098737881 0.039171156
0.90899998 -0.10033 0.039214294
0.90899998 -0.10181338 0.039214294
0.90899998 -0.10329676 0.039214294
0.91000003 -0.10489542 0.039257437
0.91000003 -0.10638044 0.039257437
0.91000003 -0.10786545 0.039257437
0.91000003 -0.10935047 0.039257437
0.91000003 -0.11083548 0.039257437
0.912 -0.11256735 0.039343715
0.912 -0.11405563 0.039343715
0.912 -0.1155439 0.039343715
0.91399997 -0.11728883 0.039429992
0.91399997 -0.11878037 0.039429992
0.91399997 -0.12027191 0.039429992
0.91399997 -0.12176345 0.039429992
0.91299999 -0.12312014 0.039386854
0.91299999 -0.12461005 0.039386854
0.91299999 -0.12609996 0.039386854
0.91299999 -0.12758987 0.039386854
0.912 -0.12893839 0.039343715
0.912 -0.13042668 0.039343715
0.912 -0.13191496 0.039343715
0.912 -0.13340323 0.039343715
0.91000003 -0.13459569 0.039257437
0.90899998 -0.13593116 0.039214294
0.90899998 -0.13741454 0.039214294
0.90799999 -0.13874513 0.039171156
0.90600002 -0.13991801 0.039084874
0.90600002 -0.14139649 0.039084874
0.90499997 -0.14271727 0.039041735
0.90499997 -0.14419413 0.039041735
0.90499997 -0.14567098 0.039041735
0.90399998 -0.14698525 0.038998593
0.90399998 -0.14846046 0.038998593
0.90200001 -0.14960398 0.038912315
0.90200001 -0.15107594 0.038912315
0.90200001 -0.1525479 0.038912315
0.90100002 -0.15384911 0.038869176
0.90100002 -0.15531944 0.038869176
0.90100002 -0.15678975 0.038869176
0.90100002 -0.15826008 0.038869176
0.90200001 -0.15990768 0.038912315
0.90100002 -0.16120073 0.038869176
0.90100002 -0.16267106 0.038869176
0.90100002 -0.16414139 0.038869176
0.90100002 -0.16561171 0.038869176
0.90100002 -0.16708204 0.038869176
0.90100002 -0.16855237 0.038869176
0.89999998 -0.16983399 0.038826033
0.89999998 -0.17130268 0.038826033
0.89999998 -0.17277138 0.038826033
0.898 -0.17385288 0.038739756
0.898 -0.1753183 0.038739756
0.898 -0.17678374 0.038739756
0.898 -0.17824917 0.038739756
0.89600003 -0.17931435 0.038653474
0.89399999 -0.18037298 0.038567193
0.89399999 -0.1818319 0.038567193
0.89200002 -0.18288076 0.038480915
0.89200002 -0.18433639 0.038480915
0.88999999 -0.18537545 0.038394634
0.889 -0.18661791 0.038351495
0.889 -0.18806866 0.038351495
0.88800001 -0.18930621 0.038308356
0.884 -0.18989608 0.038135793
0.884 -0.19133866 0.038135793
0.88300002 -0.19256316 0.038092654
0.88300002 -0.19400412 0.038092654
0.88 -0.19478104 0.037963234
0.87900001 -0.19599412 0.037920095
0.87900001 -0.19742855 0.037920095
0.87800002 -0.19863674 0.037876956
0.87599999 -0.19961379 0.037790675
0.87599999 -0.20104332 0.037790675
0.875 -0.20224172 0.037747532
0.875 -0.20366962 0.037747532
0.875 -0.20509751 0.037747532
0.87400001 -0.20628938 0.037704393
0.87400001 -0.20771565 0.037704393
0.87400001 -0.20914191 0.037704393
0.87400001 -0.21056819 0.037704393
0.87400001 -0.21199445 0.037704393
0.87400001 -0.21342072 0.037704393
0.87400001 -0.21484698 0.037704393
0.87 -0.21528344 0.037531834
0.87 -0.21670318 0.037531834
0.87 -0.21812291 0.037531834
0.87 -0.21954265 0.037531834
0.87 -0.22096239 0.037531834
0.87 -0.22238213 0.037531834
0.86900002 -0.22354463 0.037488695
0.86900002 -0.22496273 0.037488695
0.86900002 -0.22638084 0.037488695
0.86900002 -0.22779894 0.037488695
0.86900002 -0.22921705 0.037488695
0.86799997 -0.23036975 0.037445553
0.86799997 -0.23178622 0.037445553
0.86799997 -0.2332027 0.037445553
0.86699998 -0.23434886 0.037402414
0.86699998 -0.23576371 0.037402414
0.86699998 -0.23717855 0.037402414
0.86699998 -0.2385934 0.037402414
0.86699998 -0.24000823 0.037402414
0.86400002 -0.24058773 0.037272993
0.86400002 -0.24199766 0.037272993
0.86400002 -0.24340761 0.037272993
0.86299998 -0.24453419 0.037229851
0.86299998 -0.2459425 0.037229851
0.86199999 -0.2470642 0.037186712
0.861 -0.24818265 0.037143573
0.861 -0.2495877 0.037143573
0.85900003 -0.25040972 0.037057295
0.85900003 -0.2518115 0.037057295
0.85799998 -0.25291851 0.037014153
0.85699999 -0.25402227 0.036971014
0.85699999 -0.2554208 0.036971014
0.85699999 -0.25681931 0.036971014
0.85600001 -0.25791654 0.036927875
0.85600001 -0.25931343 0.036927875
0.85600001 -0.26071033 0.036927875
0.85600001 -0.26210722 0.036927875
0.85600001 -0.26350412 0.036927875
0.85600001 -0.26490098 0.036927875
0.85600001 -0.26629788 0.036927875
0.85600001 -0.26769477 0.036927875
0.85600001 -0.26909167 0.036927875
0.85699999 -0.27080455 0.036971014
0.85699999 -0.27220309 0.036971014
0.85799998 -0.27392086 0.037014153
0.85799998 -0.27532101 0.037014153
0.85799998 -0.27672115 0.037014153
0.85799998 -0.27812132 0.037014153
0.85799998 -0.27952147 0.037014153
0.85799998 -0.28092164 0.037014153
0.85900003 -0.28265086 0.037057295
0.85900003 -0.28405264 0.037057295
0.85900003 -0.28545442 0.037057295
0.85900003 -0.2868562 0.037057295
0.85900003 -0.28825799 0.037057295
0.85900003 -0.2896598 0.037057295
0.85900003 -0.29106158 0.037057295
0.85900003 -0.29246336 0.037057295
0.85900003 -0.29386514 0.037057295
0.85799998 -0.29492319 0.037014153
0.85799998 -0.29632333 0.037014153
0.85799998 -0.2977235 0.037014153
0.85699999 -0.29877502 0.036971014
0.85699999 -0.30017355 0.036971014
0.85600001 -0.30122018 0.036927875
0.85500002 -0.30226356 0.036884733
0.85500002 -0.30365881 0.036884733
0.852 -0.30398372 0.036755312
0.852 -0.30537406 0.036755312
0.85100001 -0.30640438 0.036712173
0.84899998 -0.30706975 0.036625892
0.84899998 -0.3084552 0.036625892
0.84600002 -0.30874586 0.036496472
0.84299999 -0.30902669 0.036367051
0.84299999 -0.31040236 0.036367051
0.84200001 -0.31140819 0.036323912
0.84200001 -0.31278223 0.036323912
0.83899999 -0.31303695 0.036194492
0.838 -0.31403136 0.036151353
0.838 -0.31539887 0.036151353
0.83700001 -0.3163884 0.036108214
0.83600003 -0.31737468 0.036065072
0.83600003 -0.31873891 0.036065072
0.83499998 -0.31972027 0.036021933
0.83499998 -0.32108289 0.036021933
0.83499998 -0.32244551 0.036021933
0.83499998 -0.32380813 0.036021933
0.83499998 -0.32517076 0.036021933
0.83399999 -0.32614231 0.03597879
0.833 -0.32711062 0.035935652
0.833 -0.32846999 0.035935652
0.833 -0.32982934 0.035935652
0.833 -0.33118871 0.035935652
0.833 -0.33254805 0.035935652
0.833 -0.33390743 0.035935652
0.833 -0.33526677 0.035935652
0.83099997 -0.3358179 0.03584937
0.83099997 -0.337174 0.03584937
0.83099997 -0.33853009 0.03584937
0.82999998 -0.33947718 0.035806231
0.82999998 -0.34083164 0.035806231
0.82999998 -0.34218609 0.035806231
0.82999998 -0.34354055 0.035806231
0.82999998 -0.34489504 0.035806231
0.82999998 -0.34624949 0.035806231
0.82999998 -0.34760395 0.035806231
0.82999998 -0.3489584 0.035806231
0.829 -0.34989083 0.035763092
0.829 -0.35124364 0.035763092
0.829 -0.35259649 0.035763092
0.829 -0.35394931 0.035763092
0.829 -0.35530213 0.035763092
0.829 -0.35665497 0.035763092
0.829 -0.35800779 0.035763092
0.829 -0.35936064 0.035763092
0.829 -0.36071345 0.035763092
0.82999998 -0.36250305 0.035806231
0.82999998 -0.36385751 0.035806231
0.82999998 -0.36521196 0.035806231
0.83099997 -0.36700806 0.03584937
0.83099997 -0.36836416 0.03584937
0.83099997 -0.36972025 0.03584937
0.833 -0.37196946 0.035935652
0.833 -0.3733288 0.035935652
0.833 -0.37468818 0.035935652
0.833 -0.37604752 0.035935652
0.833 -0.3774069 0.035935652
0.83399999 -0.37922093 0.03597879
0.83399999 -0.38058195 0.03597879
0.83399999 -0.38194293 0.03597879
0.83399999 -0.38330391 0.03597879
0.83399999 -0.38466489 0.03597879
0.83399999 -0.38602591 0.03597879
0.83399999 -0.38738689 0.03597879
0.833 -0.38828176 0.035935652
0.833 -0.38964111 0.035935652
0.833 -0.39100048 0.035935652
0.833 -0.39235982 0.035935652
0.833 -0.3937192 0.035935652
0.833 -0.39507854 0.035935652
0.833 -0.39643791 0.035935652
0.83099997 -0.39684215 0.03584937
0.83099997 -0.39819825 0.03584937
0.83099997 -0.39955434 0.03584937
0.82999998 -0.400428 0.035806231
0.829 -0.4012984 0.035763092
0.829 -0.40265122 0.035763092
0.82800001 -0.40351674 0.035719953
0.82800001 -0.40486792 0.035719953
0.82800001 -0.40621912 0.035719953
0.82700002 -0.40707809 0.035676815
0.82700002 -0.40842766 0.035676815
0.82499999 -0.40878621 0.035590533
0.82499999 -0.41013253 0.035590533
0.824 -0.41098008 0.035547391
0.82300001 -0.41182435 0.035504252
0.82300001 -0.41316739 0.035504252
0.81999999 -0.41299945 0.035374831
0.81900001 -0.41383231 0.035331693
0.81900001 -0.41516882 0.035331693
0.81900001 -0.41650534 0.035331693
0.81900001 -0.41784185 0.035331693
0.81900001 -0.41917837 0.035331693
0.81900001 -0.42051488 0.035331693
0.81999999 -0.42236647 0.035374831
0.81999999 -0.42370459 0.035374831
0.81999999 -0.42504275 0.035374831
0.81999999 -0.42638087 0.035374831
0.81900001 -0.42719743 0.035331693
0.81900001 -0.42853394 0.035331693
0.81800002 -0.42934558 0.035288554
0.81800002 -0.43068048 0.035288554
0.81800002 -0.43201536 0.035288554
0.81800002 -0.43335024 0.035288554
0.81599998 -0.4336223 0.035202272
0.81599998 -0.4349539 0.035202272
0.815 -0.43575087 0.03515913
0.815 -0.43708086 0.03515913
0.81300002 -0.43733498 0.035072852
0.81199998 -0.43812212 0.035029709
0.81199998 -0.43944722 0.035029709
0.81199998 -0.44077232 0.035029709
0.81199998 -0.4420974 0.035029709
0.81300002 -0.44396859 0.035072852
0.81300002 -0.44529533 0.035072852
0.81400001 -0.44717139 0.035115991
0.81400001 -0.44849974 0.035115991
0.81400001 -0.44982809 0.035115991
0.81400001 -0.45115644 0.035115991
0.81400001 -0.45248479 0.035115991
0.81400001 -0.45381317 0.035115991
0.81400001 -0.45514151 0.035115991
0.81300002 -0.4559091 0.035072852
0.81300002 -0.45723581 0.035072852
0.81300002 -0.45856252 0.035072852
0.81300002 -0.45988926 0.035072852
0.81300002 -0.46121597 0.035072852
0.81099999 -0.4614048 0.03498657
0.81 -0.4621577 0.034943432
0.81 -0.46347955 0.034943432
0.80900002 -0.46422753 0.034900293
0.80900002 -0.46554774 0.034900293
0.80699998 -0.46571371 0.034814011
0.80599999 -0.46645194 0.034770872
0.80599999 -0.46776724 0.034770872
0.80599999 -0.46908253 0.034770872
0.80599999 -0.47039783 0.034770872
0.80500001 -0.47112787 0.03472773
0.80500001 -0.47244155 0.03472773
0.80500001 -0.47375521 0.03472773
0.80400002 -0.47447875 0.034684591
0.80199999 -0.4746072 0.03459831
0.80199999 -0.47591597 0.03459831
0.801 -0.4766297 0.034555171
0.801 -0.47793683 0.034555171
0.79900002 -0.47804737 0.034468893
0.79799998 -0.47875127 0.03442575
0.79799998 -0.48005351 0.03442575
0.79699999 -0.48075259 0.034382612
0.796 -0.48144835 0.034339473
0.796 -0.48274735 0.034339473
0.79500002 -0.48343822 0.03429633
0.79500002 -0.48473558 0.03429633
0.79500002 -0.48603293 0.03429633
0.79400003 -0.48671728 0.034253191
0.79400003 -0.488013 0.034253191
0.79400003 -0.48930871 0.034253191
0.79400003 -0.49060443 0.034253191
0.79500002 -0.49251965 0.03429633
0.79500002 -0.493817 0.03429633
0.796 -0.49573714 0.034339473
0.796 -0.4970361 0.034339473
0.79699999 -0.49896112 0.034382612
0.79799998 -0.50088942 0.03442575
0.79799998 -0.50219166 0.03442575
0.79799998 -0.50349391 0.03442575
0.80000001 -0.50606132 0.034512032
0.80000001 -0.50736684 0.034512032
0.80000001 -0.5086723 0.034512032
0.80000001 -0.50997782 0.034512032
0.801 -0.51192242 0.034555171
0.801 -0.51322955 0.034555171
0.801 -0.51453674 0.034555171
0.80199999 -0.51648784 0.03459831
0.80199999 -0.51779664 0.03459831
0.80199999 -0.51910537 0.03459831
0.80199999 -0.52041417 0.03459831
0.80199999 -0.52172291 0.03459831
0.80199999 -0.52303171 0.03459831
