# .PCD v0.7 - Point Cloud Data file format
VERSION 0.7
FIELDS x y z
SIZE 4 4 4
TYPE F F F
COUNT 1 1 1
WIDTH 1490
HEIGHT 1
VIEWPOINT 0 0 0 1 0 0 0
POINTS 1490
DATA ascii
0.99599999 -0.014036571 -0.15044793
0.99599999 -0.015661925 -0.15044793
0.99599999 -0.017287282 -0.15044793
0.99400002 -0.01887466 -0.15014583
0.99400002 -0.020496752 -0.15014583
0.99199998 -0.022074338 -0.14984372
0.99199998 -0.023693167 -0.14984372
0.99199998 -0.025311995 -0.14984372
0.991 -0.026903674 -0.14969267
0.991 -0.028520871 -0.14969267
0.98799998 -0.030046832 -0.14923951
0.98400003 -0.031530958 -0.14863531
0.98400003 -0.033136733 -0.14863531
0.98299998 -0.034707196 -0.14848426
0.98299998 -0.036311336 -0.14848426
1.079 0.1626347 -0.16474605
1.079 0.1608739 -0.16474605
1.0779999 0.15896563 -0.16459335
1.076 0.1569148 -0.164288
1.043 0.11635922 -0.15924942
1.043 0.11465716 -0.15924942
1.041 0.11273852 -0.15894406
1.039 0.1108264 -0.1586387
1.039 0.10913087 -0.1586387
1.039 0.10743535 -0.1586387
1.039 0.10573982 -0.1586387
1.039 0.1040443 -0.1586387
1.039 0.10234877 -0.1586387
1.039 0.10065324 -0.1586387
1.039 0.09895771 -0.1586387
1.041 0.097449407 -0.15894406
1.043 0.09593457 -0.15924942
1.043 0.094232522 -0.15924942
1.045 0.092707895 -0.15955479
1.046 0.091089666 -0.15970747
1.046 0.089382716 -0.15970747
1.046 0.087675765 -0.15970747
1.046 0.085968815 -0.15970747
1.05 0.084584087 -0.16031821
1.05 0.08287061 -0.16031821
1.05 0.081157133 -0.16031821
1.05 0.079443656 -0.16031821
1.05 0.077730179 -0.16031821
1.05 0.076016702 -0.16031821
1.05 0.074303225 -0.16031821
1.048 0.07245148 -0.16001284
1.048 0.070741266 -0.16001284
1.048 0.069031052 -0.16001284
1.046 0.067192368 -0.15970747
1.046 0.065485418 -0.15970747
1.046 0.063778467 -0.15970747
1.045 0.062012173 -0.15955479
1.045 0.060306858 -0.15955479
1.045 0.05860154 -0.15955479
1.041 0.05667844 -0.15894406
1.041 0.054979648 -0.15894406
1.039 0.053178497 -0.1586387
1.039 0.051482968 -0.1586387
1.039 0.049787443 -0.1586387
1.038 0.048045628 -0.15848601
1.038 0.046351731 -0.15848601
1.036 0.044571795 -0.15818064
1.0319999 0.042715594 -0.1575699
1.0319999 0.041031491 -0.1575699
1.031 0.039309263 -0.15741722
1.027 0.037480809 -0.15680647
1.027 0.035804864 -0.15680647
1.025 0.034062456 -0.15650111
1.025 0.032389779 -0.15650111
1.022 0.030627193 -0.15604305
1.0190001 0.028874403 -0.15558502
1.0190001 0.027211515 -0.15558502
1.017 0.02549848 -0.15527964
1.017 0.023838853 -0.15527964
1.015 0.022135612 -0.15497427
1.0140001 0.020459076 -0.1548216
1.0140001 0.018804347 -0.1548216
1.01 0.017081965 -0.15421085
1.01 0.015433762 -0.15421085
1.01 0.013785561 -0.15421085
1.01 0.012137359 -0.15421085
1.01 0.010489156 -0.15421085
1.0089999 0.0088322014 -0.15405816
1.007 0.0071713882 -0.1537528
1.007 0.0055280821 -0.1537528
1.007 0.0038847758 -0.1537528
1.005 0.002237018 -0.15344743
1.005 0.00059697544 -0.15344743
1.005 -0.001043067 -0.15344743
1.005 -0.0026831096 -0.15344743
1.0039999 -0.0043188501 -0.15329474
1.0039999 -0.0059572607 -0.15329474
1.0039999 -0.0075956713 -0.15329474
1.002 -0.0092156874 -0.15298937
1.002 -0.010850834 -0.15298937
1.002 -0.012485981 -0.15298937
1.002 -0.014121128 -0.15298937
1.002 -0.015756276 -0.15298937
1 -0.017356709 -0.15268402
1 -0.018988591 -0.15268402
1 -0.020620475 -0.15268402
0.99699998 -0.022185599 -0.15222596
0.99699998 -0.023812588 -0.15222596
0.99699998 -0.025439575 -0.15222596
0.99599999 -0.027039414 -0.15207328
0.99599999 -0.02866477 -0.15207328
0.991 -0.030138068 -0.15130986
0.991 -0.031755265 -0.15130986
0.991 -0.033372458 -0.15130986
0.98799998 -0.034883734 -0.1508518
0.986 -0.036422156 -0.15054643
0.986 -0.038031191 -0.15054643
0.98400003 -0.039559823 -0.15024108
0.98400003 -0.041165598 -0.15024108
0.98400003 -0.042771369 -0.15024108
0.98299998 -0.044332042 -0.15008838
0.98299998 -0.045936182 -0.15008838
0.98100001 -0.047443599 -0.14978302
0.98100001 -0.049044479 -0.14978302
0.98100001 -0.050645355 -0.14978302
0.98100001 -0.052246232 -0.14978302
1.039 0.09895771 -0.1603342
1.041 0.097449407 -0.16064283
1.043 0.09593457 -0.16095147
1.043 0.094232522 -0.16095147
1.045 0.092707895 -0.16126008
1.046 0.091089666 -0.16141441
1.046 0.089382716 -0.16141441
1.046 0.087675765 -0.16141441
1.046 0.085968815 -0.16141441
1.05 0.084584087 -0.16203167
1.05 0.08287061 -0.16203167
1.05 0.081157133 -0.16203167
1.05 0.079443656 -0.16203167
1.05 0.077730179 -0.16203167
1.05 0.076016702 -0.16203167
1.05 0.074303225 -0.16203167
1.048 0.07245148 -0.16172303
1.048 0.070741266 -0.16172303
1.048 0.069031052 -0.16172303
1.046 0.067192368 -0.16141441
1.046 0.065485418 -0.16141441
1.046 0.063778467 -0.16141441
1.045 0.062012173 -0.16126008
1.045 0.060306858 -0.16126008
1.045 0.05860154 -0.16126008
1.041 0.05667844 -0.16064283
1.041 0.054979648 -0.16064283
1.039 0.053178497 -0.1603342
1.039 0.051482968 -0.1603342
1.039 0.049787443 -0.1603342
1.038 0.048045628 -0.16017988
1.038 0.046351731 -0.16017988
1.036 0.044571795 -0.15987125
1.0319999 0.042715594 -0.15925398
1.0319999 0.041031491 -0.15925398
1.031 0.039309263 -0.15909967
1.027 0.037480809 -0.1584824
1.027 0.035804864 -0.1584824
1.025 0.034062456 -0.15817377
1.025 0.032389779 -0.15817377
1.022 0.030627193 -0.15771082
1.0190001 0.028874403 -0.15724789
1.0190001 0.027211515 -0.15724789
1.017 0.02549848 -0.15693924
1.017 0.023838853 -0.15693924
1.015 0.022135612 -0.15663062
1.0140001 0.020459076 -0.15647632
1.0140001 0.018804347 -0.15647632
1.01 0.017081965 -0.15585904
1.01 0.015433762 -0.15585904
1.01 0.013785561 -0.15585904
1.01 0.012137359 -0.15585904
1.01 0.010489156 -0.15585904
1.0089999 0.0088322014 -0.15570472
1.007 0.0071713882 -0.15539609
1.007 0.0055280821 -0.15539609
1.007 0.0038847758 -0.15539609
1.007 0.0022414697 -0.15539609
1.01 0.00059994549 -0.15585904
1.01 -0.0010482564 -0.15585904
1.0089999 -0.0026937884 -0.15570472
1.0089999 -0.0043403585 -0.15570472
1.0089999 -0.0059869285 -0.15570472
1.0089999 -0.0076334984 -0.15570472
1.0089999 -0.0092800679 -0.15570472
1.007 -0.01090498 -0.15539609
1.007 -0.012548286 -0.15539609
1.007 -0.014191592 -0.15539609
1.007 -0.015834898 -0.15539609
1.007 -0.017478205 -0.15539609
1.005 -0.019083535 -0.15508746
1.005 -0.020723578 -0.15508746
1.0039999 -0.022341367 -0.15493314
1.002 -0.023932008 -0.15462451
1.002 -0.025567155 -0.15462451
1 -0.027148006 -0.15431587
1 -0.02877989 -0.15431587
0.99900001 -0.030381361 -0.15416157
0.99599999 -0.031915482 -0.15369862
0.99599999 -0.033540837 -0.15369862
0.99400002 -0.03509558 -0.15338999
0.991 -0.036606852 -0.15292704
0.991 -0.038224049 -0.15292704
0.991 -0.039841242 -0.15292704
0.991 -0.041458439 -0.15292704
0.98799998 -0.042945236 -0.15246409
0.98799998 -0.044557534 -0.15246409
0.98799998 -0.046169836 -0.15246409
0.986 -0.047685411 -0.15215546
0.986 -0.049294449 -0.15215546
0.986 -0.050903484 -0.15215546
0.98400003 -0.052406009 -0.15184683
0.98400003 -0.054011781 -0.15184683
0.98299998 -0.055561028 -0.15169251
0.98299998 -0.057165168 -0.15169251
0.98299998 -0.058769312 -0.15169251
0.98299998 -0.060373452 -0.15169251
0.98299998 -0.061977591 -0.15169251
0.98400003 -0.063646421 -0.15184683
0.98400003 -0.065252192 -0.15184683
0.98400003 -0.066857964 -0.15184683
0.98400003 -0.068463735 -0.15184683
1.05 0.089724518 -0.16374512
1.05 0.088011041 -0.16374512
1.05 0.086297564 -0.16374512
1.054 0.084906317 -0.16436893
1.054 0.083186314 -0.16436893
1.054 0.08146631 -0.16436893
1.0549999 0.079821959 -0.16452487
1.0549999 0.078100324 -0.16452487
1.054 0.076306291 -0.16436893
1.054 0.074586287 -0.16436893
1.052 0.072728015 -0.16405703
1.052 0.071011275 -0.16405703
1.052 0.069294535 -0.16405703
1.052 0.067577794 -0.16405703
1.052 0.065861054 -0.16405703
1.052 0.064144313 -0.16405703
1.05 0.062308881 -0.16374512
1.05 0.060595404 -0.16374512
1.048 0.058769774 -0.16343324
1.048 0.05705956 -0.16343324
1.048 0.055349346 -0.16343324
1.043 0.053383224 -0.16265349
1.043 0.051681168 -0.16265349
1.043 0.049979113 -0.16265349
1.041 0.048184488 -0.16234161
1.041 0.046485696 -0.16234161
1.039 0.044700861 -0.16202971
1.036 0.042881161 -0.16156186
1.036 0.041190531 -0.16156186
1.034 0.039423648 -0.16124998
1.031 0.037626792 -0.16078213
1.031 0.03594432 -0.16078213
1.027 0.034128919 -0.16015834
1.027 0.032452978 -0.16015834
1.022 0.030627193 -0.15937859
1.022 0.028959408 -0.15937859
1.022 0.027291624 -0.15937859
1.0190001 0.025548626 -0.15891077
1.017 0.023838853 -0.15859886
1.017 0.022179229 -0.15859886
1.0140001 0.020459076 -0.15813102
1.0140001 0.018804347 -0.15813102
1.012 0.01711579 -0.15781912
1.012 0.015464325 -0.15781912
1.012 0.013812859 -0.15781912
1.01 0.012137359 -0.15750723
1.01 0.010489156 -0.15750723
1.01 0.0088409549 -0.15750723
1.01 0.0071927533 -0.15750723
1.01 0.0055445512 -0.15750723
1.01 0.0038963493 -0.15750723
1.01 0.0022481473 -0.15750723
1.01 0.00059994549 -0.15750723
1.01 -0.0010482564 -0.15750723
1.0089999 -0.0026937884 -0.15735127
1.0089999 -0.0043403585 -0.15735127
1.0089999 -0.0059869285 -0.15735127
1.0089999 -0.0076334984 -0.15735127
1.0089999 -0.0092800679 -0.15735127
1.007 -0.01090498 -0.15703937
1.007 -0.012548286 -0.15703937
1.007 -0.014191592 -0.15703937
1.007 -0.015834898 -0.15703937
1.007 -0.017478205 -0.15703937
1.005 -0.019083535 -0.15672749
1.005 -0.020723578 -0.15672749
1.0039999 -0.022341367 -0.15657154
1.002 -0.023932008 -0.15625964
1.002 -0.025567155 -0.15625964
1 -0.027148006 -0.15594774
1 -0.02877989 -0.15594774
0.99900001 -0.030381361 -0.1557918
0.99599999 -0.031915482 -0.15532395
0.99599999 -0.033540837 -0.15532395
0.99400002 -0.03509558 -0.15501207
0.991 -0.036606852 -0.15454422
0.991 -0.038224049 -0.15454422
0.991 -0.039841242 -0.15454422
0.991 -0.041458439 -0.15454422
0.98799998 -0.042945236 -0.15407637
0.98799998 -0.044557534 -0.15407637
0.98799998 -0.046169836 -0.15407637
0.986 -0.047685411 -0.15376449
0.986 -0.049294449 -0.15376449
0.986 -0.050903484 -0.15376449
0.98400003 -0.052406009 -0.15345259
0.98400003 -0.054011781 -0.15345259
0.98299998 -0.055561028 -0.15329663
0.98299998 -0.057165168 -0.15329663
0.98299998 -0.058769312 -0.15329663
0.98299998 -0.060373452 -0.15329663
0.98299998 -0.061977591 -0.15329663
0.98400003 -0.063646421 -0.15345259
0.98400003 -0.065252192 -0.15345259
0.98400003 -0.066857964 -0.15345259
0.98400003 -0.068463735 -0.15345259
0.986 -0.070211925 -0.15376449
0.986 -0.071820959 -0.15376449
0.986 -0.073430002 -0.15376449
0.98799998 -0.075191244 -0.15407637
0.98900002 -0.076881282 -0.15423232
0.98900002 -0.078495219 -0.15423232
0.99199998 -0.080352142 -0.15470016
0.99400002 -0.082136244 -0.15501207
0.99400002 -0.083758332 -0.15501207
1.057 0.076523483 -0.16656166
1.057 0.074798584 -0.16656166
1.0549999 0.07293541 -0.16624649
1.0549999 0.071213774 -0.16624649
1.0549999 0.069492139 -0.16624649
1.054 0.067706272 -0.16608892
1.052 0.065861054 -0.16577376
1.052 0.064144313 -0.16577376
1.05 0.062308881 -0.16545859
1.05 0.060595404 -0.16545859
1.05 0.058881927 -0.16545859
1.048 0.05705956 -0.16514343
1.048 0.055349346 -0.16514343
1.046 0.053536769 -0.16482827
1.045 0.051780269 -0.16467069
1.045 0.05007495 -0.16467069
1.045 0.048369631 -0.16467069
1.045 0.046664316 -0.16467069
1.039 0.044700861 -0.16372523
1.038 0.042963944 -0.16356763
1.038 0.041270047 -0.16356763
1.036 0.039499901 -0.16325249
1.0319999 0.037663285 -0.16262215
1.0319999 0.035979182 -0.16262215
1.029 0.034195386 -0.16214943
1.029 0.032516178 -0.16214943
1.025 0.030717097 -0.1615191
1.022 0.028959408 -0.16104636
1.022 0.027291624 -0.16104636
1.02 0.025573697 -0.16073121
1.02 0.023909176 -0.16073121
1.017 0.022179229 -0.16025846
1.017 0.020519603 -0.16025846
1.017 0.018859979 -0.16025846
1.015 0.017166529 -0.15994331
1.0140001 0.015494888 -0.15978573
1.0140001 0.013840158 -0.15978573
1.0140001 0.012185428 -0.15978573
1.0140001 0.010530699 -0.15978573
1.012 0.0088584619 -0.15947056
1.012 0.007206996 -0.15947056
1.0140001 0.0055665104 -0.15978573
1.0140001 0.0039117807 -0.15978573
1.0140001 0.0022570512 -0.15978573
1.0140001 0.00060232152 -0.15978573
1.0140001 -0.001052408 -0.15978573
1.0140001 -0.0027071375 -0.15978573
1.015 -0.0043661683 -0.15994331
1.0140001 -0.0060165967 -0.15978573
1.0140001 -0.0076713259 -0.15978573
1.0140001 -0.0093260556 -0.15978573
1.0140001 -0.010980785 -0.15978573
1.0140001 -0.012635515 -0.15978573
1.0140001 -0.014290244 -0.15978573
1.012 -0.015913522 -0.15947056
1.012 -0.017564988 -0.15947056
1.012 -0.019216454 -0.15947056
1.012 -0.02086792 -0.15947056
1.0089999 -0.022452628 -0.15899782
1.007 -0.02405143 -0.15868267
1.007 -0.025694735 -0.15868267
1.005 -0.027283747 -0.15836751
1.002 -0.02883745 -0.15789478
1.002 -0.030472595 -0.15789478
1 -0.032043654 -0.15757962
1 -0.03367554 -0.15757962
0.99900001 -0.035272114 -0.15742204
0.99699998 -0.036828488 -0.15710688
0.99699998 -0.038455475 -0.15710688
0.99400002 -0.039961852 -0.15663414
0.99400002 -0.041583944 -0.15663414
0.99199998 -0.043119103 -0.15631898
0.991 -0.044692833 -0.1561614
0.991 -0.04631003 -0.1561614
0.991 -0.047927223 -0.1561614
0.991 -0.04954442 -0.1561614
0.991 -0.051161617 -0.1561614
0.98900002 -0.052672297 -0.15584624
0.98900002 -0.05428623 -0.15584624
0.98900002 -0.055900164 -0.15584624
0.98799998 -0.057455938 -0.15568866
0.98799998 -0.05906824 -0.15568866
0.98799998 -0.060680538 -0.15568866
0.98799998 -0.06229284 -0.15568866
0.98900002 -0.063969828 -0.15584624
0.98900002 -0.065583758 -0.15584624
0.991 -0.067333579 -0.1561614
0.991 -0.068950772 -0.1561614
0.991 -0.070567973 -0.1561614
0.99199998 -0.072258003 -0.15631898
0.99199998 -0.073876835 -0.15631898
0.99199998 -0.07549566 -0.15631898
0.99599999 -0.077425435 -0.1569493
0.99599999 -0.079050794 -0.1569493
0.99699998 -0.080757149 -0.15710688
1 -0.082632035 -0.15757962
1 -0.084263913 -0.15757962
1 -0.085895799 -0.15757962
1 -0.087527677 -0.15757962
1 -0.089159563 -0.15757962
1 -0.090791449 -0.15757962
0.99900001 -0.09233091 -0.15742204
0.99699998 -0.093773045 -0.15710688
0.99699998 -0.095400035 -0.15710688
0.99599999 -0.096929699 -0.1569493
0.99599999 -0.098555058 -0.1569493
1.05 0.062308881 -0.16717204
1.05 0.060595404 -0.16717204
1.05 0.058881927 -0.16717204
1.048 0.05705956 -0.16685364
1.048 0.055349346 -0.16685364
1.046 0.053536769 -0.16653521
1.045 0.051780269 -0.16637599
1.045 0.05007495 -0.16637599
1.045 0.048369631 -0.16637599
1.045 0.046664316 -0.16637599
1.039 0.044700861 -0.16542074
1.038 0.042963944 -0.16526152
1.038 0.041270047 -0.16526152
1.036 0.039499901 -0.1649431
1.0319999 0.037663285 -0.16430624
1.0319999 0.035979182 -0.16430624
1.029 0.034195386 -0.16382863
1.029 0.032516178 -0.16382863
1.025 0.030717097 -0.16319177
1.022 0.028959408 -0.16271412
1.022 0.027291624 -0.16271412
1.02 0.025573697 -0.16239572
1.02 0.023909176 -0.16239572
1.017 0.022179229 -0.16191807
1.017 0.020519603 -0.16191807
1.017 0.018859979 -0.16191807
1.015 0.017166529 -0.16159965
1.0140001 0.015494888 -0.16144045
1.0140001 0.013840158 -0.16144045
1.0140001 0.012185428 -0.16144045
1.0140001 0.010530699 -0.16144045
1.012 0.0088584619 -0.16112201
1.012 0.007206996 -0.16112201
1.0140001 0.0055665104 -0.16144045
1.0140001 0.0039117807 -0.16144045
1.0140001 0.0022570512 -0.16144045
1.0140001 0.00060232152 -0.16144045
1.0140001 -0.001052408 -0.16144045
1.0140001 -0.0027071375 -0.16144045
1.015 -0.0043661683 -0.16159965
1.0140001 -0.0060165967 -0.16144045
1.0140001 -0.0076713259 -0.16144045
1.0140001 -0.0093260556 -0.16144045
1.0140001 -0.010980785 -0.16144045
1.0140001 -0.012635515 -0.16144045
1.0140001 -0.014290244 -0.16144045
1.012 -0.015913522 -0.16112201
1.012 -0.017564988 -0.16112201
1.012 -0.019216454 -0.16112201
1.012 -0.02086792 -0.16112201
1.0089999 -0.022452628 -0.16064438
1.007 -0.02405143 -0.16032596
1.007 -0.025694735 -0.16032596
1.005 -0.027283747 -0.16000754
1.002 -0.02883745 -0.15952989
1.002 -0.030472595 -0.15952989
1 -0.032043654 -0.15921149
1 -0.03367554 -0.15921149
0.99900001 -0.035272114 -0.15905227
0.99699998 -0.036828488 -0.15873384
0.99699998 -0.038455475 -0.15873384
0.99400002 -0.039961852 -0.15825622
0.99400002 -0.041583944 -0.15825622
0.99199998 -0.043119103 -0.15793778
0.991 -0.044692833 -0.15777858
0.991 -0.04631003 -0.15777858
0.991 -0.047927223 -0.15777858
0.991 -0.04954442 -0.15777858
0.991 -0.051161617 -0.15777858
0.98900002 -0.052672297 -0.15746015
0.98900002 -0.05428623 -0.15746015
0.98900002 -0.055900164 -0.15746015
0.98799998 -0.057455938 -0.15730093
0.98799998 -0.05906824 -0.15730093
0.98799998 -0.060680538 -0.15730093
0.98799998 -0.06229284 -0.15730093
0.98900002 -0.063969828 -0.15746015
0.98900002 -0.065583758 -0.15746015
0.991 -0.067333579 -0.15777858
0.991 -0.068950772 -0.15777858
0.991 -0.070567973 -0.15777858
0.99199998 -0.072258003 -0.15793778
0.99199998 -0.073876835 -0.15793778
0.99199998 -0.07549566 -0.15793778
0.99599999 -0.077425435 -0.15857464
0.99599999 -0.079050794 -0.15857464
0.99699998 -0.080757149 -0.15873384
1 -0.082632035 -0.15921149
1 -0.084263913 -0.15921149
1 -0.085895799 -0.15921149
1 -0.087527677 -0.15921149
1 -0.089159563 -0.15921149
1 -0.090791449 -0.15921149
0.99900001 -0.09233091 -0.15905227
0.99699998 -0.093773045 -0.15873384
0.99699998 -0.095400035 -0.15873384
0.99599999 -0.096929699 -0.15857464
0.99599999 -0.098555058 -0.15857464
0.99199998 -0.099778078 -0.15793778
0.98900002 -0.10109027 -0.15746015
0.98900002 -0.1027042 -0.15746015
0.98799998 -0.10421265 -0.15730093
0.98299998 -0.1052894 -0.15650488
0.98299998 -0.10689354 -0.15650488
0.98299998 -0.10849769 -0.15650488
0.98799998 -0.11066186 -0.15730093
0.986 -0.11204688 -0.15698253
0.986 -0.11365592 -0.15698253
1.05 0.055454973 -0.16888551
1.046 0.053536769 -0.16824214
1.046 0.051829822 -0.16824214
1.046 0.050122872 -0.16824214
1.045 0.048369631 -0.1680813
1.045 0.046664316 -0.1680813
1.043 0.044872951 -0.16775961
1.039 0.043005336 -0.16711624
1.039 0.041309811 -0.16711624
1.038 0.039576154 -0.1669554
1.034 0.037736278 -0.16631202
1.034 0.036048912 -0.16631202
1.0319999 0.034295078 -0.16599032
1.0319999 0.032610975 -0.16599032
1.027 0.030777033 -0.16518611
1.025 0.029044418 -0.16486444
1.025 0.027371738 -0.16486444
1.022 0.025623839 -0.16438189
1.02 0.023909176 -0.16406022
1.02 0.022244655 -0.16406022
1.0190001 0.020559959 -0.16389938
1.0190001 0.01889707 -0.16389938
1.017 0.017200354 -0.16357768
1.017 0.015540728 -0.16357768
1.017 0.013881104 -0.16357768
1.017 0.012221479 -0.16357768
1.015 0.010541083 -0.16325599
1.015 0.0088847224 -0.16325599
1.015 0.0072283605 -0.16325599
1.017 0.0055829785 -0.16357768
1.017 0.0039233537 -0.16357768
1.017 0.0022637285 -0.16357768
1.017 0.00060410349 -0.16357768
1.017 -0.0010555215 -0.16357768
1.02 -0.0027231558 -0.16406022
1.02 -0.0043876767 -0.16406022
1.0190001 -0.0060462644 -0.16389938
1.0190001 -0.007709153 -0.16389938
1.0190001 -0.0093720425 -0.16389938
1.0190001 -0.011034931 -0.16389938
1.02 -0.01271028 -0.16406022
1.017 -0.014332522 -0.16357768
1.017 -0.015992146 -0.16357768
1.017 -0.017651772 -0.16357768
1.015 -0.019273421 -0.16325599
1.015 -0.020929782 -0.16325599
1.0140001 -0.022563891 -0.16309516
1.01 -0.024123084 -0.16245177
1.01 -0.025771284 -0.16245177
1.0089999 -0.027392337 -0.16229093
1.007 -0.028981348 -0.16196924
1.007 -0.030624654 -0.16196924
1.0039999 -0.032171831 -0.16148672
1.0039999 -0.033810239 -0.16148672
1.0039999 -0.035448652 -0.16148672
1 -0.036939304 -0.16084334
1 -0.03857119 -0.16084334
0.99900001 -0.040162869 -0.16068251
0.99900001 -0.041793119 -0.16068251
0.99900001 -0.043423373 -0.16068251
0.99699998 -0.044963423 -0.16036081
0.99699998 -0.04659041 -0.16036081
0.99699998 -0.048217397 -0.16036081
0.99599999 -0.049794391 -0.16019997
0.99599999 -0.051419746 -0.16019997
0.99599999 -0.053045101 -0.16019997
0.99599999 -0.054670461 -0.16019997
0.99599999 -0.056295816 -0.16019997
0.99400002 -0.057804864 -0.1598783
0.99400002 -0.059426956 -0.1598783
0.99400002 -0.061049048 -0.1598783
0.99400002 -0.06267114 -0.1598783
0.99400002 -0.064293228 -0.1598783
0.99400002 -0.065915324 -0.1598783
0.99599999 -0.067673303 -0.16019997
0.99599999 -0.069298655 -0.16019997
0.99599999 -0.070924014 -0.16019997
0.99699998 -0.07262221 -0.16036081
0.99699998 -0.074249193 -0.16036081
0.99900001 -0.076028399 -0.16068251
1 -0.077736385 -0.16084334
1 -0.079368263 -0.16084334
1.0039999 -0.081324145 -0.16148672
1.005 -0.083045192 -0.16164756
1.005 -0.084685236 -0.16164756
1.007 -0.086497068 -0.16196924
1.007 -0.088140368 -0.16196924
1.005 -0.089605361 -0.16164756
1.005 -0.091245405 -0.16164756
1.0039999 -0.092793018 -0.16148672
1.0039999 -0.09443143 -0.16148672
1.0039999 -0.096069843 -0.16148672
1 -0.097318977 -0.16084334
1 -0.098950863 -0.16084334
0.99900001 -0.10048217 -0.16068251
0.99599999 -0.10180577 -0.16019997
0.99599999 -0.10343113 -0.16019997
0.99199998 -0.10463457 -0.1595566
0.991 -0.10614628 -0.15939575
0.991 -0.10776348 -0.15939575
0.98799998 -0.10904955 -0.15891322
0.98799998 -0.11066186 -0.15891322
0.986 -0.11204688 -0.15859154
0.986 -0.11365592 -0.15859154
0.986 -0.11526495 -0.15859154
0.986 -0.11687399 -0.15859154
0.98400003 -0.1182427 -0.15826985
0.98400003 -0.11984847 -0.15826985
0.98400003 -0.12145425 -0.15826985
0.98400003 -0.12306002 -0.15826985
0.98400003 -0.12466579 -0.15826985
0.986 -0.12652822 -0.15859154
0.986 -0.12813725 -0.15859154
0.986 -0.12974629 -0.15859154
1.034 0.037736278 -0.16799939
1.034 0.036048912 -0.16799939
1.0319999 0.034295078 -0.16767441
1.0319999 0.032610975 -0.16767441
1.029 0.030836971 -0.16718701
1.027 0.029101089 -0.16686204
1.027 0.027425146 -0.16686204
1.024 0.025673987 -0.16637462
1.022 0.023956055 -0.16604966
1.022 0.02228827 -0.16604966
1.0190001 0.020559959 -0.16556226
1.0190001 0.01889707 -0.16556226
1.017 0.017200354 -0.16523729
1.017 0.015540728 -0.16523729
1.0190001 0.013908403 -0.16556226
1.017 0.012221479 -0.16523729
1.017 0.010561854 -0.16523729
1.017 0.0089022284 -0.16523729
1.017 0.0072426037 -0.16523729
1.017 0.0055829785 -0.16523729
1.017 0.0039233537 -0.16523729
1.0190001 0.0022681805 -0.16556226
1.02 0.00060588552 -0.16572472
1.02 -0.0010586352 -0.16572472
1.022 -0.0027284953 -0.16604966
1.022 -0.0043962798 -0.16604966
1.022 -0.0060640643 -0.16604966
1.022 -0.0077318489 -0.16604966
1.02 -0.0093812384 -0.16572472
1.02 -0.01104576 -0.16572472
1.02 -0.01271028 -0.16572472
1.02 -0.014374801 -0.16572472
1.017 -0.015992146 -0.16523729
1.017 -0.017651772 -0.16523729
1.017 -0.019311396 -0.16523729
1.017 -0.020971023 -0.16523729
1.015 -0.022586143 -0.16491234
1.012 -0.024170851 -0.16442491
1.012 -0.025822317 -0.16442491
1.01 -0.027419487 -0.16409996
1.007 -0.028981348 -0.16361254
1.007 -0.030624654 -0.16361254
1.007 -0.032267962 -0.16361254
1.0089999 -0.033978619 -0.16393748
1.005 -0.03548396 -0.16328759
1.005 -0.037124 -0.16328759
1.005 -0.038764045 -0.16328759
1.002 -0.040283475 -0.16280016
1.002 -0.041918624 -0.16280016
1.002 -0.04355377 -0.16280016
1 -0.045098722 -0.16247521
1 -0.046730604 -0.16247521
1 -0.048362486 -0.16247521
1 -0.049994372 -0.16247521
1 -0.051626254 -0.16247521
0.99900001 -0.053204879 -0.16231275
0.99900001 -0.05483513 -0.16231275
0.99900001 -0.05646538 -0.16231275
0.99900001 -0.058095634 -0.16231275
0.99900001 -0.059725884 -0.16231275
0.99900001 -0.061356135 -0.16231275
0.99900001 -0.062986389 -0.16231275
0.99900001 -0.064616635 -0.16231275
0.99900001 -0.06624689 -0.16231275
1 -0.067945085 -0.16247521
1.002 -0.069716118 -0.16280016
1.002 -0.071351267 -0.16280016
1.0039999 -0.07313209 -0.16312511
1.0039999 -0.074770503 -0.16312511
1.0039999 -0.076408915 -0.16312511
1.005 -0.078125067 -0.16328759
1.005 -0.079765104 -0.16328759
1.0089999 -0.081729144 -0.16393748
1.01 -0.083458349 -0.16409996
1.01 -0.085106552 -0.16409996
1.01 -0.086754754 -0.16409996
1.01 -0.088402957 -0.16409996
1.01 -0.090051159 -0.16409996
1.01 -0.091699362 -0.16409996
1.007 -0.093070291 -0.16361254
1.007 -0.094713598 -0.16361254
1.007 -0.096356906 -0.16361254
1.005 -0.097805575 -0.16328759
1.0039999 -0.09934666 -0.16312511
1.0039999 -0.10098507 -0.16312511
1 -0.10221463 -0.16247521
1 -0.10384651 -0.16247521
0.99699998 -0.10516196 -0.16198778
0.99400002 -0.10646762 -0.16150036
0.99400002 -0.10808971 -0.16150036
0.99199998 -0.10949105 -0.16117541
0.99199998 -0.11110988 -0.16117541
0.991 -0.11261507 -0.16101293
0.991 -0.11423226 -0.16101293
0.99199998 -0.11596636 -0.16117541
0.991 -0.11746666 -0.16101293
0.98900002 -0.11884353 -0.160688
0.98900002 -0.12045746 -0.160688
0.98900002 -0.12207139 -0.160688
0.98900002 -0.12368532 -0.160688
0.98900002 -0.12529926 -0.160688
0.991 -0.12716983 -0.16101293
0.991 -0.12878703 -0.16101293
0.991 -0.13040423 -0.16101293
0.991 -0.13202143 -0.16101293
0.99199998 -0.13377348 -0.16117541
0.99199998 -0.13539229 -0.16117541
0.99199998 -0.13701113 -0.16117541
0.99199998 -0.13862996 -0.16117541
0.99199998 -0.14024878 -0.16117541
0.99199998 -0.14186761 -0.16117541
0.99199998 -0.14348644 -0.16117541
1.025 0.027371738 -0.16820976
1.024 0.025673987 -0.16804565
1.02 0.023909176 -0.16738923
1.02 0.022244655 -0.16738923
1.0190001 0.020559959 -0.16722512
1.0190001 0.01889707 -0.16722512
1.017 0.017200354 -0.16689689
1.017 0.015540728 -0.16689689
1.0190001 0.013908403 -0.16722512
1.017 0.012221479 -0.16689689
1.017 0.010561854 -0.16689689
1.017 0.0089022284 -0.16689689
1.017 0.0072426037 -0.16689689
1.017 0.0055829785 -0.16689689
1.017 0.0039233537 -0.16689689
1.0190001 0.0022681805 -0.16722512
1.02 0.00060588552 -0.16738923
1.02 -0.0010586352 -0.16738923
1.022 -0.0027284953 -0.16771743
1.022 -0.0043962798 -0.16771743
1.022 -0.0060640643 -0.16771743
1.022 -0.0077318489 -0.16771743
1.02 -0.0093812384 -0.16738923
1.02 -0.01104576 -0.16738923
1.02 -0.01271028 -0.16738923
1.02 -0.014374801 -0.16738923
1.017 -0.015992146 -0.16689689
1.017 -0.017651772 -0.16689689
1.017 -0.019311396 -0.16689689
1.017 -0.020971023 -0.16689689
1.015 -0.022586143 -0.16656868
1.012 -0.024170851 -0.16607636
1.012 -0.025822317 -0.16607636
1.01 -0.027419487 -0.16574815
1.007 -0.028981348 -0.16525583
1.007 -0.030624654 -0.16525583
1.007 -0.032267962 -0.16525583
1.0089999 -0.033978619 -0.16558404
1.005 -0.03548396 -0.16492762
1.005 -0.037124 -0.16492762
1.005 -0.038764045 -0.16492762
1.002 -0.040283475 -0.1644353
1.002 -0.041918624 -0.1644353
1.002 -0.04355377 -0.1644353
1 -0.045098722 -0.16410708
1 -0.046730604 -0.16410708
1 -0.048362486 -0.16410708
1 -0.049994372 -0.16410708
1 -0.051626254 -0.16410708
0.99900001 -0.053204879 -0.16394298
0.99900001 -0.05483513 -0.16394298
0.99900001 -0.05646538 -0.16394298
0.99900001 -0.058095634 -0.16394298
0.99900001 -0.059725884 -0.16394298
0.99900001 -0.061356135 -0.16394298
0.99900001 -0.062986389 -0.16394298
0.99900001 -0.064616635 -0.16394298
0.99900001 -0.06624689 -0.16394298
1 -0.067945085 -0.16410708
1.002 -0.069716118 -0.1644353
1.002 -0.071351267 -0.1644353
1.0039999 -0.07313209 -0.16476351
1.0039999 -0.074770503 -0.16476351
1.0039999 -0.076408915 -0.16476351
1.005 -0.078125067 -0.16492762
1.005 -0.079765104 -0.16492762
1.0089999 -0.081729144 -0.16558404
1.01 -0.083458349 -0.16574815
1.01 -0.085106552 -0.16574815
1.01 -0.086754754 -0.16574815
1.01 -0.088402957 -0.16574815
1.01 -0.090051159 -0.16574815
1.01 -0.091699362 -0.16574815
1.007 -0.093070291 -0.16525583
1.007 -0.094713598 -0.16525583
1.007 -0.096356906 -0.16525583
1.005 -0.097805575 -0.16492762
1.0039999 -0.09934666 -0.16476351
1.0039999 -0.10098507 -0.16476351
1 -0.10221463 -0.16410708
1 -0.10384651 -0.16410708
0.99699998 -0.10516196 -0.16361476
0.99400002 -0.10646762 -0.16312245
0.99400002 -0.10808971 -0.16312245
0.99199998 -0.10949105 -0.16279422
0.99199998 -0.11110988 -0.16279422
0.991 -0.11261507 -0.16263013
0.991 -0.11423226 -0.16263013
0.99199998 -0.11596636 -0.16279422
0.991 -0.11746666 -0.16263013
0.98900002 -0.11884353 -0.16230191
0.98900002 -0.12045746 -0.16230191
0.98900002 -0.12207139 -0.16230191
0.98900002 -0.12368532 -0.16230191
0.98900002 -0.12529926 -0.16230191
0.991 -0.12716983 -0.16263013
0.991 -0.12878703 -0.16263013
0.991 -0.13040423 -0.16263013
0.991 -0.13202143 -0.16263013
0.99199998 -0.13377348 -0.16279422
0.99199998 -0.13539229 -0.16279422
0.99199998 -0.13701113 -0.16279422
0.99199998 -0.13862996 -0.16279422
0.99199998 -0.14024878 -0.16279422
0.99199998 -0.14186761 -0.16279422
0.99199998 -0.14348644 -0.16279422
0.99400002 -0.14539783 -0.16312245
0.99400002 -0.14701991 -0.16312245
0.99400002 -0.148642 -0.16312245
0.99599999 -0.15056643 -0.16345066
0.99599999 -0.15219179 -0.16345066
0.99400002 -0.15350828 -0.16312245
0.99400002 -0.15513037 -0.16312245
0.99400002 -0.15675247 -0.16312245
0.99199998 -0.15805589 -0.16279422
0.99199998 -0.15967472 -0.16279422
1.02 0.013922052 -0.16905373
1.0190001 0.012245514 -0.168888
1.0190001 0.010582625 -0.168888
1.0190001 0.0089197364 -0.168888
1.0190001 0.0072568473 -0.168888
1.02 0.0055994475 -0.16905373
1.02 0.0039349268 -0.16905373
1.022 0.0022748581 -0.16938519
1.024 0.00060826162 -0.16971669
1.024 -0.0010627868 -0.16971669
1.025 -0.0027365047 -0.16988242
1.025 -0.0044091847 -0.16988242
1.025 -0.0060818647 -0.16988242
1.025 -0.0077545452 -0.16988242
1.024 -0.0094180284 -0.16971669
1.024 -0.011089077 -0.16971669
1.024 -0.012760125 -0.16971669
1.024 -0.014431174 -0.16971669
1.022 -0.01607077 -0.16938519
1.022 -0.017738555 -0.16938519
1.02 -0.019368364 -0.16905373
1.02 -0.021032883 -0.16905373
1.0190001 -0.022675153 -0.168888
1.015 -0.024242504 -0.16822504
1.015 -0.025898864 -0.16822504
1.012 -0.027473781 -0.16772781
1.01 -0.029067688 -0.16739634
1.01 -0.03071589 -0.16739634
1.0089999 -0.032332048 -0.16723059
1.0089999 -0.033978619 -0.16723059
1.0089999 -0.035625186 -0.16723059
1.007 -0.03719788 -0.16689911
1.007 -0.038841184 -0.16689911
1.005 -0.040404085 -0.16656764
1.0039999 -0.04200229 -0.16640189
1.0039999 -0.043640703 -0.16640189
1.0039999 -0.045279112 -0.16640189
1.0039999 -0.046917524 -0.16640189
1.002 -0.04845921 -0.16607042
1.002 -0.050094359 -0.16607042
1.0039999 -0.051832754 -0.16640189
1.0039999 -0.053471167 -0.16640189
1.002 -0.054999799 -0.16607042
1.002 -0.056634944 -0.16607042
1.002 -0.058270093 -0.16607042
1.002 -0.059905238 -0.16607042
1.002 -0.061540384 -0.16607042
1.002 -0.063175529 -0.16607042
1.0039999 -0.064940043 -0.16640189
1.0039999 -0.066578448 -0.16640189
1.005 -0.06828481 -0.16656764
1.007 -0.070064001 -0.16689911
1.007 -0.071707308 -0.16689911
1.0089999 -0.073496297 -0.16723059
1.0089999 -0.075142868 -0.16723059
1.0089999 -0.076789439 -0.16723059
1.01 -0.078513749 -0.16739634
1.01 -0.080161944 -0.16739634
1.012 -0.081972145 -0.16772781
1.0140001 -0.083788887 -0.1680593
1.0140001 -0.085443616 -0.1680593
1.015 -0.087184235 -0.16822504
1.015 -0.088840596 -0.16822504
1.0140001 -0.090407804 -0.1680593
1.0140001 -0.092062533 -0.1680593
1.012 -0.093532406 -0.16772781
1.012 -0.095183872 -0.16772781
1.012 -0.096835338 -0.16772781
1.0089999 -0.098194845 -0.16723059
1.0089999 -0.099841416 -0.16723059
1.0089999 -0.10148799 -0.16723059
1.005 -0.1027257 -0.16656764
1.005 -0.10436574 -0.16656764
1.002 -0.10568935 -0.16607042
0.99900001 -0.10700317 -0.16557321
0.99900001 -0.10863342 -0.16557321
0.99699998 -0.11004292 -0.16524173
0.99699998 -0.11166991 -0.16524173
0.99699998 -0.1132969 -0.16524173
0.99699998 -0.11492388 -0.16524173
0.99699998 -0.11655087 -0.16524173
0.99599999 -0.11805932 -0.16507599
0.99599999 -0.11968468 -0.16507599
0.99599999 -0.12131003 -0.16507599
0.99599999 -0.12293539 -0.16507599
0.99599999 -0.12456074 -0.16507599
0.99599999 -0.1261861 -0.16507599
0.99599999 -0.12781146 -0.16507599
0.99599999 -0.12943681 -0.16507599
0.99599999 -0.13106216 -0.16507599
0.99400002 -0.13242109 -0.16474453
0.99400002 -0.13404317 -0.16474453
0.99400002 -0.13566527 -0.16474453
0.99400002 -0.13728736 -0.16474453
0.99400002 -0.13890946 -0.16474453
0.99599999 -0.1408143 -0.16507599
0.99599999 -0.14243966 -0.16507599
0.99599999 -0.14406501 -0.16507599
0.99599999 -0.14569037 -0.16507599
0.99599999 -0.14731573 -0.16507599
0.99599999 -0.14894108 -0.16507599
0.99699998 -0.1507176 -0.16524173
0.99699998 -0.15234458 -0.16524173
0.99699998 -0.15397158 -0.16524173
0.99699998 -0.15559857 -0.16524173
0.99599999 -0.15706785 -0.16507599
0.99400002 -0.15837456 -0.16474453
0.99400002 -0.15999664 -0.16474453
0.991 -0.16113095 -0.1642473
0.98900002 -0.16241971 -0.16391583
0.98900002 -0.16403364 -0.16391583
0.986 -0.1651451 -0.16341861
0.986 -0.16675413 -0.16341861
0.98299998 -0.1678509 -0.16292138
0.98000002 -0.16893789 -0.16242418
0.98000002 -0.17053714 -0.16242418
1.027 -0.0010659003 -0.17188983
1.027 -0.0027418442 -0.17188983
1.029 -0.0044263918 -0.17222458
1.029 -0.0061055995 -0.17222458
1.029 -0.0077848071 -0.17222458
1.029 -0.0094640153 -0.17222458
1.027 -0.011121564 -0.17188983
1.027 -0.012797507 -0.17188983
1.027 -0.014473451 -0.17188983
1.024 -0.016102223 -0.17138773
1.024 -0.017773271 -0.17138773
1.024 -0.019444318 -0.17138773
1.024 -0.021115366 -0.17138773
1.02 -0.022697404 -0.17071824
1.0190001 -0.024338042 -0.17055087
1.0190001 -0.026000932 -0.17055087
1.015 -0.027555227 -0.16988137
1.0140001 -0.02918281 -0.16971402
1.0140001 -0.03083754 -0.16971402
1.012 -0.032428179 -0.16937926
1.012 -0.034079645 -0.16937926
1.01 -0.035660498 -0.16904452
1.0089999 -0.037271757 -0.16887714
1.0089999 -0.038918328 -0.16887714
1.007 -0.040484492 -0.16854241
1.007 -0.042127799 -0.16854241
1.007 -0.043771103 -0.16854241
1.005 -0.045324214 -0.16820768
1.005 -0.046964258 -0.16820768
1.005 -0.048604298 -0.16820768
1.005 -0.050244343 -0.16820768
1.005 -0.051884383 -0.16820768
1.005 -0.053524427 -0.16820768
1.005 -0.055164468 -0.16820768
1.005 -0.056804512 -0.16820768
1.0039999 -0.058386397 -0.16804029
1.0039999 -0.060024809 -0.16804029
1.0039999 -0.061663218 -0.16804029
1.0039999 -0.06330163 -0.16804029
1.007 -0.065134086 -0.16854241
1.007 -0.066777393 -0.16854241
1.007 -0.068420701 -0.16854241
1.01 -0.070272736 -0.16904452
1.01 -0.071920939 -0.16904452
1.012 -0.073714823 -0.16937926
1.012 -0.075366288 -0.16937926
1.0140001 -0.07716997 -0.16971402
1.0140001 -0.078824699 -0.16971402
1.0140001 -0.080479428 -0.16971402
1.017 -0.082377151 -0.17021611
1.0190001 -0.084202044 -0.17055087
1.0190001 -0.085864931 -0.17055087
1.0190001 -0.087527819 -0.17055087
1.0190001 -0.089190714 -0.17055087
1.017 -0.090675272 -0.17021611
1.017 -0.092334896 -0.17021611
1.017 -0.093994521 -0.17021611
1.017 -0.095654145 -0.17021611
1.017 -0.097313777 -0.17021611
1.015 -0.098778762 -0.16988137
1.0140001 -0.10033618 -0.16971402
1.0140001 -0.10199091 -0.16971402
1.01 -0.10323677 -0.16904452
1.01 -0.10488497 -0.16904452
1.007 -0.10621674 -0.16854241
1.005 -0.10764583 -0.16820768
1.005 -0.10928587 -0.16820768
1.0039999 -0.11081553 -0.16804029
1.002 -0.11222994 -0.16770555
1.002 -0.11386508 -0.16770555
1.002 -0.11550023 -0.16770555
1.002 -0.11713538 -0.16770555
1.002 -0.11877052 -0.16770555
1 -0.12016534 -0.16737081
1 -0.12179723 -0.16737081
0.99900001 -0.12330568 -0.16720344
0.99900001 -0.12493593 -0.16720344
0.99900001 -0.12656619 -0.16720344
0.99900001 -0.12819643 -0.16720344
0.99900001 -0.12982668 -0.16720344
0.99900001 -0.13145694 -0.16720344
0.99900001 -0.13308719 -0.16720344
0.99900001 -0.13471743 -0.16720344
0.99900001 -0.1363477 -0.16720344
0.99900001 -0.13797794 -0.16720344
0.99900001 -0.13960819 -0.16720344
0.99900001 -0.14123845 -0.16720344
0.99900001 -0.1428687 -0.16720344
0.99900001 -0.14449894 -0.16720344
1 -0.14627548 -0.16737081
1 -0.14790736 -0.16737081
0.99900001 -0.1493897 -0.16720344
0.99900001 -0.15101995 -0.16720344
1 -0.152803 -0.16737081
0.99900001 -0.15428045 -0.16720344
0.99900001 -0.1559107 -0.16720344
0.99699998 -0.15722555 -0.1668687
0.99599999 -0.15869321 -0.16670133
0.99599999 -0.16031857 -0.16670133
0.99400002 -0.16161874 -0.16636659
0.991 -0.16274814 -0.16586448
0.991 -0.16436535 -0.16586448
0.98799998 -0.16548006 -0.16536236
0.98799998 -0.16709237 -0.16536236
0.986 -0.16836317 -0.16502763
0.98400003 -0.16962744 -0.16469289
0.98400003 -0.17123321 -0.16469289
0.98100001 -0.17231204 -0.16419077
0.98100001 -0.17391291 -0.16419077
0.98000002 -0.17533487 -0.1640234
0.977 -0.17639248 -0.16352129
0.977 -0.17798683 -0.16352129
0.97500002 -0.17921357 -0.16318655
0.97500002 -0.18080465 -0.16318655
0.97500002 -0.18239574 -0.16318655
0.97399998 -0.18379812 -0.16301917
0.97399998 -0.18538757 -0.16301917
1.029 -0.0061055995 -0.17390376
1.029 -0.0077848071 -0.17390376
1.029 -0.0094640153 -0.17390376
1.027 -0.011121564 -0.17356575
1.027 -0.012797507 -0.17356575
1.027 -0.014473451 -0.17356575
1.024 -0.016102223 -0.17305876
1.024 -0.017773271 -0.17305876
1.024 -0.019444318 -0.17305876
1.024 -0.021115366 -0.17305876
1.02 -0.022697404 -0.17238274
1.0190001 -0.024338042 -0.17221375
1.0190001 -0.026000932 -0.17221375
1.015 -0.027555227 -0.17153773
1.0140001 -0.02918281 -0.17136873
1.0140001 -0.03083754 -0.17136873
1.012 -0.032428179 -0.17103072
1.012 -0.034079645 -0.17103072
1.01 -0.035660498 -0.17069271
1.0089999 -0.037271757 -0.1705237
1.0089999 -0.038918328 -0.1705237
1.007 -0.040484492 -0.1701857
1.007 -0.042127799 -0.1701857
1.007 -0.043771103 -0.1701857
1.005 -0.045324214 -0.1698477
1.005 -0.046964258 -0.1698477
1.005 -0.048604298 -0.1698477
1.005 -0.050244343 -0.1698477
1.005 -0.051884383 -0.1698477
1.005 -0.053524427 -0.1698477
1.005 -0.055164468 -0.1698477
1.005 -0.056804512 -0.1698477
1.0039999 -0.058386397 -0.16967869
1.0039999 -0.060024809 -0.16967869
1.0039999 -0.061663218 -0.16967869
1.0039999 -0.06330163 -0.16967869
1.007 -0.065134086 -0.1701857
1.007 -0.066777393 -0.1701857
1.007 -0.068420701 -0.1701857
1.01 -0.070272736 -0.17069271
1.01 -0.071920939 -0.17069271
1.012 -0.073714823 -0.17103072
1.012 -0.075366288 -0.17103072
1.0140001 -0.07716997 -0.17136873
1.0140001 -0.078824699 -0.17136873
1.0140001 -0.080479428 -0.17136873
1.017 -0.082377151 -0.17187573
1.0190001 -0.084202044 -0.17221375
1.0190001 -0.085864931 -0.17221375
1.0190001 -0.087527819 -0.17221375
1.0190001 -0.089190714 -0.17221375
1.017 -0.090675272 -0.17187573
1.017 -0.092334896 -0.17187573
1.017 -0.093994521 -0.17187573
1.017 -0.095654145 -0.17187573
1.017 -0.097313777 -0.17187573
1.015 -0.098778762 -0.17153773
1.0140001 -0.10033618 -0.17136873
1.0140001 -0.10199091 -0.17136873
1.01 -0.10323677 -0.17069271
1.01 -0.10488497 -0.17069271
1.007 -0.10621674 -0.1701857
1.005 -0.10764583 -0.1698477
1.005 -0.10928587 -0.1698477
1.0039999 -0.11081553 -0.16967869
1.002 -0.11222994 -0.16934069
1.002 -0.11386508 -0.16934069
1.002 -0.11550023 -0.16934069
1.002 -0.11713538 -0.16934069
1.002 -0.11877052 -0.16934069
1 -0.12016534 -0.16900268
1 -0.12179723 -0.16900268
0.99900001 -0.12330568 -0.16883369
0.99900001 -0.12493593 -0.16883369
0.99900001 -0.12656619 -0.16883369
0.99900001 -0.12819643 -0.16883369
0.99900001 -0.12982668 -0.16883369
0.99900001 -0.13145694 -0.16883369
0.99900001 -0.13308719 -0.16883369
0.99900001 -0.13471743 -0.16883369
0.99900001 -0.1363477 -0.16883369
0.99900001 -0.13797794 -0.16883369
0.99900001 -0.13960819 -0.16883369
0.99900001 -0.14123845 -0.16883369
0.99900001 -0.1428687 -0.16883369
0.99900001 -0.14449894 -0.16883369
1 -0.14627548 -0.16900268
1 -0.14790736 -0.16900268
0.99900001 -0.1493897 -0.16883369
0.99900001 -0.15101995 -0.16883369
1 -0.152803 -0.16900268
0.99900001 -0.15428045 -0.16883369
0.99900001 -0.1559107 -0.16883369
0.99699998 -0.15722555 -0.16849567
0.99599999 -0.15869321 -0.16832668
0.99599999 -0.16031857 -0.16832668
0.99400002 -0.16161874 -0.16798867
0.991 -0.16274814 -0.16748166
0.991 -0.16436535 -0.16748166
0.98799998 -0.16548006 -0.16697465
0.98799998 -0.16709237 -0.16697465
0.986 -0.16836317 -0.16663665
0.98400003 -0.16962744 -0.16629864
0.98400003 -0.17123321 -0.16629864
0.98100001 -0.17231204 -0.16579163
0.98100001 -0.17391291 -0.16579163
0.98000002 -0.17533487 -0.16562264
0.977 -0.17639248 -0.16511562
0.977 -0.17798683 -0.16511562
0.97500002 -0.17921357 -0.16477762
0.97500002 -0.18080465 -0.16477762
0.97500002 -0.18239574 -0.16477762
0.97399998 -0.18379812 -0.16460861
0.97399998 -0.18538757 -0.16460861
0.972 -0.18659309 -0.16427061
0.97000003 -0.18779208 -0.16393261
0.97000003 -0.18937501 -0.16393261
0.97000003 -0.19095793 -0.16393261
0.97000003 -0.19254087 -0.16393261
0.97000003 -0.19412379 -0.16393261
0.97000003 -0.19570671 -0.16393261
0.97000003 -0.19728965 -0.16393261
1.027 -0.016149394 -0.17524168
1.027 -0.017825339 -0.17524168
1.025 -0.019463306 -0.17490041
1.025 -0.021135986 -0.17490041
1.024 -0.022786416 -0.17472979
1.02 -0.024361925 -0.17404725
1.02 -0.026026446 -0.17404725
1.017 -0.027609522 -0.17353533
1.017 -0.029269148 -0.17353533
1.017 -0.030928772 -0.17353533
1.017 -0.032588396 -0.17353533
1.017 -0.03424802 -0.17353533
1.0140001 -0.035801727 -0.17302345
1.0140001 -0.037456457 -0.17302345
1.0140001 -0.039111186 -0.17302345
1.012 -0.040685508 -0.17268217
1.01 -0.042253304 -0.1723409
1.01 -0.043901507 -0.1723409
1.01 -0.045549709 -0.1723409
1.01 -0.047197908 -0.1723409
1.01 -0.048846111 -0.1723409
1.012 -0.0505943 -0.17268217
1.012 -0.052245766 -0.17268217
1.0089999 -0.053737458 -0.17217025
1.0089999 -0.055384025 -0.17217025
1.0089999 -0.057030596 -0.17217025
1.0089999 -0.058677167 -0.17217025
1.0089999 -0.060323738 -0.17217025
1.0089999 -0.061970305 -0.17217025
1.0089999 -0.063616879 -0.17217025
1.01 -0.065328129 -0.1723409
1.01 -0.066976331 -0.1723409
1.0140001 -0.068896316 -0.17302345
1.015 -0.070620619 -0.17319407
1.015 -0.07227698 -0.17319407
1.017 -0.074079022 -0.17353533
1.017 -0.075738646 -0.17353533
1.017 -0.07739827 -0.17353533
1.02 -0.079291105 -0.17404725
1.02 -0.080955632 -0.17404725
1.022 -0.082782149 -0.1743885
1.022 -0.084449932 -0.1743885
1.022 -0.086117715 -0.1743885
1.024 -0.0879573 -0.17472979
1.024 -0.089628346 -0.17472979
1.022 -0.09112107 -0.1743885
1.022 -0.092788853 -0.1743885
1.02 -0.094271794 -0.17404725
1.02 -0.095936313 -0.17404725
1.022 -0.097792208 -0.1743885
1.022 -0.099459991 -0.1743885
1.02 -0.10092988 -0.17404725
1.02 -0.1025944 -0.17404725
1.017 -0.10395227 -0.17353533
1.017 -0.1056119 -0.17353533
1.015 -0.10706057 -0.17319407
1.012 -0.1083956 -0.17268217
1.012 -0.11004706 -0.17268217
1.01 -0.11147778 -0.1723409
1.01 -0.11312599 -0.1723409
1.01 -0.11477419 -0.1723409
1.0089999 -0.11630712 -0.17217025
1.0089999 -0.11795368 -0.17217025
1.007 -0.11936319 -0.17182899
1.005 -0.12076617 -0.17148772
1.005 -0.12240621 -0.17148772
1.0039999 -0.12392282 -0.17131709
1.0039999 -0.12556122 -0.17131709
1.0039999 -0.12719963 -0.17131709
1.0039999 -0.12883805 -0.17131709
1.0039999 -0.13047646 -0.17131709
1.0039999 -0.13211487 -0.17131709
1.002 -0.13348684 -0.17097582
1.002 -0.13512199 -0.17097582
1.002 -0.13675714 -0.17097582
1.002 -0.13839228 -0.17097582
1.002 -0.14002743 -0.17097582
1.002 -0.14166258 -0.17097582
1.0039999 -0.14358374 -0.17131709
1.002 -0.14493287 -0.17097582
1.002 -0.14656802 -0.17097582
1.0039999 -0.14849898 -0.17131709
1.0039999 -0.15013738 -0.17131709
1.002 -0.15147346 -0.17097582
1.002 -0.15310861 -0.17097582
1.002 -0.15474375 -0.17097582
1.002 -0.1563789 -0.17097582
1 -0.15769865 -0.17063455
0.99900001 -0.15917121 -0.17046392
0.99900001 -0.16080146 -0.17046392
0.99699998 -0.16210651 -0.17012264
0.99599999 -0.16356929 -0.16995201
0.99599999 -0.16519463 -0.16995201
0.99199998 -0.16615003 -0.16926947
0.99199998 -0.16776885 -0.16926947
0.98900002 -0.16887543 -0.16875757
0.98799998 -0.17031696 -0.16858694
0.98799998 -0.17192927 -0.16858694
0.986 -0.17319028 -0.16824567
0.986 -0.17479931 -0.16824567
0.98400003 -0.17605053 -0.16790441
0.98299998 -0.17747575 -0.16773376
0.98299998 -0.17907989 -0.16773376
0.98100001 -0.18031642 -0.16739249
0.98000002 -0.18173185 -0.16722186
0.98000002 -0.1833311 -0.16722186
0.98000002 -0.18493034 -0.16722186
0.98000002 -0.18652959 -0.16722186
0.98000002 -0.18812884 -0.16722186
0.97799999 -0.18934087 -0.16688059
0.97799999 -0.19093686 -0.16688059
0.97799999 -0.19253284 -0.16688059
0.977 -0.19393033 -0.16670996
0.977 -0.19552468 -0.16670996
0.977 -0.19711903 -0.16670996
0.97799999 -0.19891676 -0.16688059
0.97799999 -0.20051275 -0.16688059
0.977 -0.20190208 -0.16670996
0.977 -0.20349643 -0.16670996
0.977 -0.20509078 -0.16670996
0.97500002 -0.20626204 -0.16636869
0.97500002 -0.20785311 -0.16636869
0.97500002 -0.2094442 -0.16636869
0.977 -0.21146818 -0.16670996
0.97399998 -0.21240829 -0.16619805
0.97399998 -0.21399774 -0.16619805
1.017 -0.029269148 -0.17519493
1.017 -0.030928772 -0.17519493
1.017 -0.032588396 -0.17519493
1.017 -0.03424802 -0.17519493
1.0140001 -0.035801727 -0.17467816
1.0140001 -0.037456457 -0.17467816
1.0140001 -0.039111186 -0.17467816
1.012 -0.040685508 -0.1743336
1.01 -0.042253304 -0.17398909
1.01 -0.043901507 -0.17398909
1.01 -0.045549709 -0.17398909
1.01 -0.047197908 -0.17398909
1.01 -0.048846111 -0.17398909
1.012 -0.0505943 -0.1743336
1.012 -0.052245766 -0.1743336
1.0089999 -0.053737458 -0.1738168
1.0089999 -0.055384025 -0.1738168
1.0089999 -0.057030596 -0.1738168
1.0089999 -0.058677167 -0.1738168
1.0089999 -0.060323738 -0.1738168
1.0089999 -0.061970305 -0.1738168
1.0089999 -0.063616879 -0.1738168
1.01 -0.065328129 -0.17398909
1.01 -0.066976331 -0.17398909
1.0140001 -0.068896316 -0.17467816
1.015 -0.070620619 -0.17485042
1.015 -0.07227698 -0.17485042
1.017 -0.074079022 -0.17519493
1.017 -0.075738646 -0.17519493
1.017 -0.07739827 -0.17519493
1.02 -0.079291105 -0.17571175
1.02 -0.080955632 -0.17571175
1.022 -0.082782149 -0.17605627
1.022 -0.084449932 -0.17605627
1.022 -0.086117715 -0.17605627
1.024 -0.0879573 -0.17640083
1.024 -0.089628346 -0.17640083
1.022 -0.09112107 -0.17605627
1.022 -0.092788853 -0.17605627
1.022 -0.094456643 -0.17605627
1.029 -0.096782818 -0.17726216
1.029 -0.098462023 -0.17726216
1.029 -0.10014123 -0.17726216
1.027 -0.10162253 -0.1769176
1.027 -0.10329848 -0.1769176
1.024 -0.10466778 -0.17640083
1.024 -0.10633884 -0.17640083
1.022 -0.10779891 -0.17605627
1.02 -0.10925248 -0.17571175
1.02 -0.110917 -0.17571175
1.0190001 -0.11247116 -0.17553949
1.017 -0.11391003 -0.17519493
1.017 -0.11556965 -0.17519493
1.015 -0.11699874 -0.17485042
1.015 -0.1186551 -0.17485042
1.0140001 -0.12019294 -0.17467816
1.012 -0.12160733 -0.1743336
1.012 -0.12325878 -0.1743336
1.0089999 -0.12453996 -0.1738168
1.0089999 -0.12618653 -0.1738168
1.0089999 -0.1278331 -0.1738168
1.0089999 -0.12947968 -0.1738168
1.0089999 -0.13112624 -0.1738168
1.0089999 -0.13277282 -0.1738168
1.0089999 -0.13441938 -0.1738168
1.0089999 -0.13606596 -0.1738168
1.0089999 -0.13771252 -0.1738168
1.0089999 -0.13935909 -0.1738168
1.0089999 -0.14100567 -0.1738168
1.007 -0.14236948 -0.17347229
1.007 -0.14401278 -0.17347229
1.007 -0.14565609 -0.17347229
1.0089999 -0.14759195 -0.1738168
1.0089999 -0.14923851 -0.1738168
1.007 -0.15058601 -0.17347229
1.007 -0.15222931 -0.17347229
1.007 -0.15387262 -0.17347229
1.007 -0.15551592 -0.17347229
1.007 -0.15715924 -0.17347229
1.005 -0.15848714 -0.17312776
1.002 -0.15964919 -0.17261095
1.002 -0.16128434 -0.17261095
1 -0.1625943 -0.17226642
0.99699998 -0.1637335 -0.17174962
0.99699998 -0.1653605 -0.17174962
0.99400002 -0.16648501 -0.17123282
0.99400002 -0.16810711 -0.17123282
0.99199998 -0.16938768 -0.17088829
0.991 -0.17083412 -0.17071602
0.991 -0.17245133 -0.17071602
0.98900002 -0.17371723 -0.17037149
0.98799998 -0.17515387 -0.17019922
0.98799998 -0.17676617 -0.17019922
0.986 -0.17801739 -0.16985469
0.986 -0.17962642 -0.16985469
0.986 -0.18123546 -0.16985469
0.986 -0.18284449 -0.16985469
0.986 -0.18445353 -0.16985469
0.98400003 -0.18568517 -0.16951016
0.98400003 -0.18729094 -0.16951016
0.98400003 -0.18889672 -0.16951016
0.98400003 -0.19050248 -0.16951016
0.98400003 -0.19210826 -0.16951016
0.98400003 -0.19371404 -0.16951016
0.98400003 -0.1953198 -0.16951016
0.98400003 -0.19692558 -0.16951016
0.98400003 -0.19853134 -0.16951016
0.98400003 -0.20013712 -0.16951016
0.98400003 -0.2017429 -0.16951016
0.98400003 -0.20334867 -0.16951016
0.98400003 -0.20495445 -0.16951016
0.98299998 -0.20635028 -0.16933788
0.98299998 -0.20795442 -0.16933788
0.98299998 -0.20955856 -0.16933788
0.98100001 -0.21073309 -0.16899335
0.98100001 -0.21233396 -0.16899335
0.98100001 -0.21393484 -0.16899335
0.97799999 -0.21487658 -0.16847655
0.97799999 -0.21647257 -0.16847655
0.97799999 -0.21806854 -0.16847655
0.977 -0.21943992 -0.16830429
0.977 -0.22103427 -0.16830429
0.97500002 -0.22217289 -0.16795976
0.97500002 -0.22376397 -0.16795976
0.97399998 -0.22512391 -0.16778749
