# .PCD v0.7 - Point Cloud Data file format
VERSION 0.7
FIELDS x y z
SIZE 4 4 4
TYPE F F F
COUNT 1 1 1
WIDTH 1449
HEIGHT 1
VIEWPOINT 0 0 0 1 0 0 0
POINTS 1449
DATA ascii
0.87699997 -0.41880935 0.24964362
0.87699997 -0.42024052 0.24964362
0.87800002 -0.42215252 0.2499283
0.87800002 -0.4235853 0.2499283
0.87800002 -0.4250181 0.2499283
0.87800002 -0.42645088 0.2499283
0.87800002 -0.42788368 0.2499283
0.87800002 -0.42931649 0.2499283
0.87800002 -0.43074927 0.2499283
0.87800002 -0.43218207 0.2499283
0.87800002 -0.43361485 0.2499283
0.87800002 -0.43504766 0.2499283
0.87699997 -0.4359833 0.24964362
0.87699997 -0.43741444 0.24964362
0.87699997 -0.4388456 0.24964362
0.87699997 -0.44027677 0.24964362
0.87699997 -0.44170794 0.24964362
0.87699997 -0.44313911 0.24964362
0.87599999 -0.44406334 0.24935898
0.87599999 -0.44549286 0.24935898
0.87599999 -0.44692239 0.24935898
0.87599999 -0.44835192 0.24935898
0.87599999 -0.44978145 0.24935898
0.87599999 -0.45121101 0.24935898
0.87599999 -0.45264053 0.24935898
0.87599999 -0.45407006 0.24935898
0.87400001 -0.45445964 0.24878967
0.87400001 -0.45588592 0.24878967
0.87400001 -0.45731217 0.24878967
0.87400001 -0.45873845 0.24878967
0.87400001 -0.4601647 0.24878967
0.87400001 -0.46159098 0.24878967
0.87400001 -0.46301723 0.24878967
0.87400001 -0.4644435 0.24878967
0.87300003 -0.46533674 0.24850501
0.87300003 -0.46676138 0.24850501
0.87300003 -0.46818602 0.24850501
0.87199998 -0.4690727 0.24822035
0.87199998 -0.4704957 0.24822035
0.87199998 -0.4719187 0.24822035
0.87199998 -0.4733417 0.24822035
0.87199998 -0.4747647 0.24822035
0.87199998 -0.47618771 0.24822035
0.87199998 -0.47761071 0.24822035
0.87199998 -0.47903371 0.24822035
0.87199998 -0.48045671 0.24822035
0.87199998 -0.48187971 0.24822035
0.87199998 -0.48330271 0.24822035
0.87099999 -0.48416984 0.2479357
0.87099999 -0.4855912 0.2479357
0.87099999 -0.48701259 0.2479357
0.87199998 -0.48899472 0.24822035
0.87199998 -0.49041772 0.24822035
0.87199998 -0.49184072 0.24822035
0.87199998 -0.49326372 0.24822035
0.87099999 -0.49411944 0.2479357
0.87099999 -0.4955408 0.2479357
0.87099999 -0.49696216 0.2479357
0.87099999 -0.49838355 0.2479357
0.87199998 -0.50037873 0.24822035
0.87199998 -0.50180173 0.24822035
0.84799999 -0.55026335 0.2413886
0.84799999 -0.55164719 0.2413886
0.84799999 -0.55303103 0.2413886
0.84799999 -0.55441487 0.2413886
0.84799999 -0.55579871 0.2413886
0.84799999 -0.55718255 0.2413886
0.81599998 0.27746096 0.23094799
0.81599998 0.27612934 0.23094799
0.81599998 0.27479771 0.23094799
0.815 0.27313098 0.23066497
0.81400001 0.27146751 0.23038195
0.81400001 0.27013916 0.23038195
0.81300002 0.26848057 0.23009893
0.81300002 0.26715383 0.23009893
0.81300002 0.26582712 0.23009893
0.81099999 0.26384971 0.22953287
0.81 0.26220256 0.22924985
0.81 0.26088074 0.22924985
0.80900002 0.25923845 0.22896683
0.80900002 0.25791827 0.22896683
0.80699998 0.25596371 0.22840077
0.80599999 0.25433123 0.22811775
0.80599999 0.25301594 0.22811775
0.80599999 0.25170064 0.22811775
0.80599999 0.25038534 0.22811775
0.80599999 0.24907005 0.22811775
0.80599999 0.24775475 0.22811775
0.80599999 0.24643944 0.22811775
0.80599999 0.24512415 0.22811775
0.80699998 0.24411134 0.22840077
0.80800003 0.24309528 0.2286838
0.80800003 0.24177672 0.2286838
0.80900002 0.24075575 0.22896683
0.81 0.23973152 0.22924985
0.81 0.2384097 0.22924985
0.81099999 0.23738056 0.22953287
0.81300002 0.23663926 0.23009893
0.81300002 0.23531254 0.23009893
0.81400001 0.23427363 0.23038195
0.81599998 0.2335176 0.23094799
0.81599998 0.23218599 0.23094799
0.81699997 0.23113728 0.231231
0.81699997 0.22980404 0.231231
0.81900001 0.22903009 0.23179707
0.81999999 0.22797158 0.23208009
0.81999999 0.22663344 0.23208009
0.82099998 0.22557004 0.2323631
0.82099998 0.22423026 0.2323631
0.82099998 0.2228905 0.2323631
0.82099998 0.22155072 0.2323631
0.82099998 0.22021094 0.2323631
0.82099998 0.21887116 0.2323631
0.82200003 0.21779636 0.23264615
0.82200003 0.21645495 0.23264615
0.82200003 0.21511354 0.23264615
0.82300001 0.21403219 0.23292917
0.82300001 0.21268916 0.23292917
0.82300001 0.21134612 0.23292917
0.824 0.21025825 0.23321219
0.824 0.20891356 0.23321219
0.82499999 0.2078208 0.23349521
0.82499999 0.2064745 0.23349521
0.82499999 0.20512819 0.23349521
0.82599998 0.20402889 0.23377824
0.82599998 0.20268096 0.23377824
0.82599998 0.20133302 0.23377824
0.82599998 0.19998509 0.23377824
0.82599998 0.19863714 0.23377824
0.82599998 0.19728921 0.23377824
0.82599998 0.19594128 0.23377824
0.82599998 0.19459334 0.23377824
0.82700002 0.19347937 0.23406127
0.82700002 0.19212981 0.23406127
0.82700002 0.19078024 0.23406127
0.82700002 0.18943067 0.23406127
0.82700002 0.1880811 0.23406127
0.82700002 0.18673153 0.23406127
0.82700002 0.18538196 0.23406127
0.82700002 0.1840324 0.23406127
0.82599998 0.18246193 0.23377824
0.82599998 0.18111399 0.23377824
0.82599998 0.17976606 0.23377824
0.82599998 0.17841811 0.23377824
0.82599998 0.17707019 0.23377824
0.82499999 0.17550951 0.23349521
0.82499999 0.17416321 0.23349521
0.82499999 0.1728169 0.23349521
0.82499999 0.1714706 0.23349521
0.82499999 0.17012429 0.23349521
0.82499999 0.16877799 0.23349521
0.82499999 0.1674317 0.23349521
0.82499999 0.16608539 0.23349521
0.82499999 0.16473909 0.23349521
0.82499999 0.16339278 0.23349521
0.82499999 0.16204648 0.23349521
0.82499999 0.16070017 0.23349521
0.82599998 0.15954703 0.23377824
0.82599998 0.15819909 0.23377824
0.82599998 0.15685116 0.23377824
0.82700002 0.15569149 0.23406127
0.82700002 0.15434192 0.23406127
0.82700002 0.15299235 0.23406127
0.82700002 0.15164278 0.23406127
0.82700002 0.15029322 0.23406127
0.82700002 0.14894365 0.23406127
0.82700002 0.14759408 0.23406127
0.82700002 0.14624451 0.23406127
0.82599998 0.14471973 0.23377824
0.82599998 0.14337181 0.23377824
0.82599998 0.14202386 0.23377824
0.82599998 0.14067593 0.23377824
0.82599998 0.13932799 0.23377824
0.82599998 0.13798006 0.23377824
0.82599998 0.13663213 0.23377824
0.82599998 0.13528419 0.23377824
0.82599998 0.13393626 0.23377824
0.82700002 0.13274884 0.23406127
0.82700002 0.13139927 0.23406127
0.82700002 0.13004971 0.23406127
0.82800001 0.12885576 0.23434429
0.82800001 0.12750456 0.23434429
0.82800001 0.12615336 0.23434429
0.82800001 0.12480216 0.23434429
0.82800001 0.12345096 0.23434429
0.82800001 0.12209976 0.23434429
0.82800001 0.12074856 0.23434429
0.82800001 0.11939736 0.23434429
0.82800001 0.11804616 0.23434429
0.82800001 0.11669496 0.23434429
0.82999998 0.11562237 0.23491034
0.82999998 0.11426791 0.23491034
0.82999998 0.11291344 0.23491034
0.82999998 0.11155898 0.23491034
0.82999998 0.11020453 0.23491034
0.82999998 0.10885006 0.23491034
0.82999998 0.1074956 0.23491034
0.82999998 0.10614114 0.23491034
0.82999998 0.10478667 0.23491034
0.82999998 0.10343221 0.23491034
0.82999998 0.10207774 0.23491034
0.82999998 0.10072328 0.23491034
0.82999998 0.099368818 0.23491034
0.82999998 0.098014355 0.23491034
0.83099997 0.096776351 0.23519336
0.83099997 0.095420256 0.23519336
0.83099997 0.094064161 0.23519336
0.83399999 0.06037898 0.23604244
0.83399999 0.05901799 0.23604244
0.83399999 0.057657 0.23604244
0.83399999 0.05629601 0.23604244
0.83399999 0.054935019 0.23604244
0.833 0.053509794 0.23575941
0.833 0.052150432 0.23575941
0.833 0.050791074 0.23575941
0.833 0.049431715 0.23575941
0.833 0.048072357 0.23575941
0.833 0.046712998 0.23575941
0.833 0.04535364 0.23575941
0.833 0.043994281 0.23575941
0.833 0.042634923 0.23575941
0.83399999 0.041325115 0.23604244
0.83399999 0.039964125 0.23604244
0.833 0.038556848 0.23575941
0.833 0.037197489 0.23575941
0.833 0.035838131 0.23575941
0.83200002 0.034437381 0.23547639
0.83200002 0.033079654 0.23547639
0.83099997 0.031683799 0.23519336
0.83099997 0.030327704 0.23519336
0.83099997 0.028971609 0.23519336
0.82999998 0.027582282 0.23491034
0.82999998 0.026227821 0.23491034
0.82800001 0.024813423 0.23434429
0.82700002 0.023433886 0.23406127
0.82700002 0.02208432 0.23406127
0.82599998 0.020709679 0.23377824
0.82599998 0.019361744 0.23377824
0.82599998 0.018013809 0.23377824
0.82499999 0.016645696 0.23349521
0.82499999 0.015299393 0.23349521
0.82499999 0.01395309 0.23349521
0.82599998 0.012622067 0.23377824
0.82599998 0.011274132 0.23377824
0.82599998 0.0099261962 0.23377824
0.82599998 0.0085782604 0.23377824
0.82700002 0.0072390791 0.23406127
0.82700002 0.0058895117 0.23406127
0.82999998 0.0045564133 0.23491034
0.83099997 0.0032058081 0.23519336
0.83099997 0.0018497133 0.23519336
0.83200002 0.00049421255 0.23547639
0.83200002 -0.0008635142 0.23547639
0.833 -0.0022239108 0.23575941
0.83499998 -0.0035918725 0.23632546
0.83499998 -0.004954495 0.23632546
0.83600003 -0.0063246829 0.23660849
0.838 -0.0077073313 0.23717453
0.838 -0.00907485 0.23717453
0.838 -0.010442368 0.23717453
0.83899999 -0.011823978 0.23745756
0.838 -0.013177403 0.23717453
0.838 -0.014544922 0.23717453
0.838 -0.01591244 0.23717453
0.83600003 -0.017238718 0.23660849
0.83600003 -0.018602971 0.23660849
0.83600003 -0.019967226 0.23660849
0.83499998 -0.021305963 0.23632546
0.83499998 -0.022668585 0.23632546
0.83499998 -0.024031207 0.23632546
0.83499998 -0.025393831 0.23632546
0.83499998 -0.026756452 0.23632546
0.83499998 -0.028119074 0.23632546
0.83499998 -0.029481696 0.23632546
0.83499998 -0.03084432 0.23632546
0.83499998 -0.032206941 0.23632546
0.83499998 -0.033569563 0.23632546
0.83499998 -0.034932185 0.23632546
0.83499998 -0.036294807 0.23632546
0.83499998 -0.037657432 0.23632546
0.83499998 -0.039020054 0.23632546
0.83600003 -0.040431041 0.23660849
0.83600003 -0.041795295 0.23660849
0.83600003 -0.043159548 0.23660849
0.838 -0.044630319 0.23717453
0.838 -0.045997836 0.23717453
0.838 -0.047365353 0.23717453
0.838 -0.048732873 0.23717453
0.838 -0.05010039 0.23717453
0.838 -0.059673015 0.23717453
0.838 -0.061040536 0.23717453
0.838 -0.062408052 0.23717453
0.838 -0.063775569 0.23717453
0.838 -0.065143086 0.23717453
0.83600003 -0.066351868 0.23660849
0.83600003 -0.067716129 0.23660849
0.83600003 -0.069080383 0.23660849
0.83600003 -0.070444636 0.23660849
0.83600003 -0.07180889 0.23660849
0.83600003 -0.073173143 0.23660849
0.83600003 -0.074537396 0.23660849
0.83600003 -0.07590165 0.23660849
0.838 -0.077450752 0.23717453
0.838 -0.078818269 0.23717453
0.838 -0.080185786 0.23717453
0.83899999 -0.098080419 0.23745756
0.83899999 -0.099449567 0.23745756
0.83899999 -0.10081872 0.23745756
0.838 -0.10206608 0.23717453
0.83600003 -0.10318674 0.23660849
0.83600003 -0.10455099 0.23660849
0.83600003 -0.10591525 0.23660849
0.83600003 -0.1072795 0.23660849
0.83600003 -0.10864376 0.23660849
0.83499998 -0.10987642 0.23632546
0.83499998 -0.11123904 0.23632546
0.83399999 -0.11246681 0.23604244
0.83399999 -0.1138278 0.23604244
0.83399999 -0.11518879 0.23604244
0.83399999 -0.11654978 0.23604244
0.83499998 -0.11805215 0.23632546
0.83600003 -0.11955779 0.23660849
0.83600003 -0.12092204 0.23660849
0.838 -0.12257884 0.23717453
0.83899999 -0.12409427 0.23745756
0.83899999 -0.12546341 0.23745756
0.83999997 -0.12698373 0.23774058
0.83999997 -0.12835452 0.23774058
0.84100002 -0.12987974 0.23802361
0.84100002 -0.13125215 0.23802361
0.84100002 -0.13262457 0.23802361
0.84200001 -0.13415632 0.23830663
0.84200001 -0.13553035 0.23830663
0.84200001 -0.1369044 0.23830663
0.84200001 -0.13827845 0.23830663
0.84200001 -0.13965249 0.23830663
0.84200001 -0.14102654 0.23830663
0.84200001 -0.14240059 0.23830663
0.84200001 -0.14377463 0.23830663
0.84100002 -0.14497629 0.23802361
0.84100002 -0.14634871 0.23802361
0.84100002 -0.14772113 0.23802361
0.84100002 -0.14909354 0.23802361
0.84100002 -0.15046595 0.23802361
0.84100002 -0.15183836 0.23802361
0.84100002 -0.15321077 0.23802361
0.84100002 -0.15458319 0.23802361
0.84100002 -0.1559556 0.23802361
0.84200001 -0.15751509 0.23830663
0.84200001 -0.15888913 0.23830663
0.84200001 -0.16026318 0.23830663
0.84299999 -0.16182919 0.23858966
0.84299999 -0.16320486 0.23858966
0.84399998 -0.16477577 0.23887268
0.84399998 -0.16615309 0.23887268
0.84399998 -0.16753039 0.23887268
0.84600002 -0.16930796 0.23943873
0.84600002 -0.17068854 0.23943873
0.84600002 -0.17206912 0.23943873
0.847 -0.17365471 0.23972176
0.847 -0.17503691 0.23972176
0.84799999 -0.1766274 0.24000478
0.84799999 -0.17801124 0.24000478
0.84799999 -0.17939506 0.24000478
0.84899998 -0.18099208 0.2402878
0.84899998 -0.18237756 0.2402878
0.84899998 -0.18376303 0.2402878
0.85000002 -0.18536659 0.24057083
0.85000002 -0.18675369 0.24057083
0.85000002 -0.18814078 0.24057083
0.85000002 -0.18952788 0.24057083
0.85000002 -0.19091499 0.24057083
0.85100001 -0.19252832 0.24085386
0.85100001 -0.19391705 0.24085386
0.85100001 -0.19530578 0.24085386
0.85299999 -0.19715679 0.2414199
0.85299999 -0.19854878 0.2414199
0.85299999 -0.19994077 0.2414199
0.85299999 -0.20133276 0.2414199
0.85299999 -0.20272477 0.2414199
0.85299999 -0.20411676 0.2414199
0.85299999 -0.20550875 0.2414199
0.85299999 -0.20690076 0.2414199
0.85299999 -0.20829275 0.2414199
0.85299999 -0.20968474 0.2414199
0.85299999 -0.21107674 0.2414199
0.85299999 -0.21246874 0.2414199
0.85299999 -0.21386074 0.2414199
0.85299999 -0.21525273 0.2414199
0.85299999 -0.21664473 0.2414199
0.85299999 -0.21803673 0.2414199
0.85399997 -0.21968596 0.24170291
0.85399997 -0.22107959 0.24170291
0.85399997 -0.22247322 0.24170291
0.85399997 -0.22386685 0.24170291
0.85399997 -0.22526047 0.24170291
0.85399997 -0.2266541 0.24170291
0.85399997 -0.22804773 0.24170291
0.85399997 -0.22944136 0.24170291
0.85399997 -0.23083499 0.24170291
0.85500002 -0.23250055 0.24198596
0.85500002 -0.23389582 0.24198596
0.85500002 -0.23529108 0.24198596
0.85600001 -0.23696315 0.24226898
0.85600001 -0.23836005 0.24226898
0.85600001 -0.23975694 0.24226898
0.85600001 -0.24115384 0.24226898
0.85600001 -0.24255073 0.24226898
0.85699999 -0.24423259 0.242552
0.85699999 -0.24563113 0.242552
0.85699999 -0.24702965 0.242552
0.85699999 -0.24842817 0.242552
0.85699999 -0.2498267 0.242552
0.85900003 -0.2518115 0.24311806
0.85900003 -0.25321332 0.24311806
0.85900003 -0.2546151 0.24311806
0.86000001 -0.25631493 0.24340108
0.86000001 -0.25771832 0.24340108
0.86000001 -0.25912175 0.24340108
0.861 -0.26082811 0.2436841
0.861 -0.26223317 0.2436841
0.861 -0.2636382 0.2436841
0.86199999 -0.26535109 0.24396712
0.86199999 -0.26675779 0.24396712
0.86199999 -0.26816446 0.24396712
0.86199999 -0.26957116 0.24396712
0.86199999 -0.27097782 0.24396712
0.86199999 -0.27238449 0.24396712
0.86299998 -0.2741088 0.24425013
0.86299998 -0.27551714 0.24425013
0.86500001 -0.27756724 0.2448162
0.866 -0.27930132 0.24509922
0.866 -0.28071454 0.24509922
0.866 -0.28212774 0.24509922
0.866 -0.28354096 0.24509922
0.86699998 -0.28528321 0.24538223
0.86799997 -0.28702873 0.24566527
0.86799997 -0.2884452 0.24566527
0.86799997 -0.28986168 0.24566527
0.86799997 -0.29127815 0.24566527
0.86799997 -0.29269463 0.24566527
0.87 -0.29478878 0.24623132
0.87 -0.29620853 0.24623132
0.87 -0.29762825 0.24623132
0.87 -0.29904801 0.24623132
0.86799997 -0.299777 0.24566527
0.86500001 -0.30015248 0.2448162
0.86500001 -0.30156407 0.2448162
0.86500001 -0.30297565 0.2448162
0.86500001 -0.30438721 0.2448162
0.866 -0.30615231 0.24509922
0.866 -0.30756554 0.24509922
0.866 -0.30897874 0.24509922
0.86500001 -0.31003353 0.2448162
0.86500001 -0.31144512 0.2448162
0.86500001 -0.3128567 0.2448162
0.86500001 -0.31426826 0.2448162
0.86500001 -0.31567985 0.2448162
0.86500001 -0.31709144 0.2448162
0.86500001 -0.31850302 0.2448162
0.86500001 -0.31991458 0.2448162
0.86299998 -0.32058319 0.24425013
0.86299998 -0.32199153 0.24425013
0.86299998 -0.32339984 0.24425013
0.86299998 -0.32480815 0.24425013
0.86299998 -0.32621646 0.24425013
0.86299998 -0.32762477 0.24425013
0.86299998 -0.32903311 0.24425013
0.86299998 -0.33044142 0.24425013
0.86299998 -0.33184972 0.24425013
0.86199999 -0.33287188 0.24396712
0.86199999 -0.33427855 0.24396712
0.86199999 -0.33568525 0.24396712
0.86199999 -0.33709192 0.24396712
0.86199999 -0.33849862 0.24396712
0.86199999 -0.33990529 0.24396712
0.86199999 -0.34131199 0.24396712
0.86199999 -0.34271866 0.24396712
0.861 -0.34372613 0.2436841
0.861 -0.34513119 0.2436841
0.861 -0.34653625 0.2436841
0.861 -0.34794128 0.2436841
0.861 -0.34934634 0.2436841
0.861 -0.3507514 0.2436841
0.861 -0.35215646 0.2436841
0.861 -0.35356149 0.2436841
0.861 -0.35496655 0.2436841
0.86199999 -0.35678551 0.24396712
0.86299998 -0.35860771 0.24425013
0.86299998 -0.36001602 0.24425013
0.86500001 -0.36226195 0.2448162
0.86500001 -0.36367354 0.2448162
0.86500001 -0.36508512 0.2448162
0.866 -0.36692038 0.24509922
0.866 -0.36833361 0.24509922
0.86699998 -0.37017375 0.24538223
0.87 -0.37287438 0.24623132
0.87 -0.37429413 0.24623132
0.87 -0.37571386 0.24623132
0.87099999 -0.37756708 0.24651434
0.87099999 -0.37898844 0.24651434
0.87199998 -0.38084656 0.24679735
0.87199998 -0.38226956 0.24679735
0.87300003 -0.38413259 0.2470804
0.87400001 -0.38599887 0.24736342
0.87400001 -0.38742515 0.24736342
0.87400001 -0.3888514 0.24736342
0.87699997 -0.3916173 0.24821249
0.87699997 -0.39304844 0.24821249
0.87699997 -0.3944796 0.24821249
0.87699997 -0.39591077 0.24821249
0.87599999 -0.39688888 0.24792945
0.87599999 -0.39831841 0.24792945
0.87599999 -0.39974794 0.24792945
0.87599999 -0.40117747 0.24792945
0.87599999 -0.40260699 0.24792945
0.87599999 -0.40403652 0.24792945
0.87599999 -0.40546605 0.24792945
0.87599999 -0.40689558 0.24792945
0.87599999 -0.40832511 0.24792945
0.87699997 -0.41022238 0.24821249
0.87699997 -0.41165355 0.24821249
0.87699997 -0.41308472 0.24821249
0.87699997 -0.41451588 0.24821249
0.87699997 -0.41594702 0.24821249
0.87699997 -0.41737819 0.24821249
0.87699997 -0.41880935 0.24821249
0.87699997 -0.42024052 0.24821249
0.87800002 -0.42215252 0.24849552
0.87800002 -0.4235853 0.24849552
0.87800002 -0.4250181 0.24849552
0.87800002 -0.42645088 0.24849552
0.87800002 -0.42788368 0.24849552
0.87800002 -0.42931649 0.24849552
0.87800002 -0.43074927 0.24849552
0.87800002 -0.43218207 0.24849552
0.87800002 -0.43361485 0.24849552
0.87800002 -0.43504766 0.24849552
0.87699997 -0.4359833 0.24821249
0.87699997 -0.43741444 0.24821249
0.87699997 -0.4388456 0.24821249
0.87699997 -0.44027677 0.24821249
0.87699997 -0.44170794 0.24821249
0.87699997 -0.44313911 0.24821249
0.87599999 -0.44406334 0.24792945
0.87599999 -0.44549286 0.24792945
0.87599999 -0.44692239 0.24792945
0.87599999 -0.44835192 0.24792945
0.87599999 -0.44978145 0.24792945
0.87599999 -0.45121101 0.24792945
0.87599999 -0.45264053 0.24792945
0.87599999 -0.45407006 0.24792945
0.87400001 -0.45445964 0.24736342
0.87400001 -0.45588592 0.24736342
0.87400001 -0.45731217 0.24736342
0.87400001 -0.45873845 0.24736342
0.87400001 -0.4601647 0.24736342
0.87400001 -0.46159098 0.24736342
0.87400001 -0.46301723 0.24736342
0.87400001 -0.4644435 0.24736342
0.87300003 -0.46533674 0.2470804
0.87300003 -0.46676138 0.2470804
0.87300003 -0.46818602 0.2470804
0.87199998 -0.4690727 0.24679735
0.87199998 -0.4704957 0.24679735
0.87199998 -0.4719187 0.24679735
0.87199998 -0.4733417 0.24679735
0.87199998 -0.4747647 0.24679735
0.87199998 -0.47618771 0.24679735
0.87199998 -0.47761071 0.24679735
0.87199998 -0.47903371 0.24679735
0.87199998 -0.48045671 0.24679735
0.87199998 -0.48187971 0.24679735
0.87199998 -0.48330271 0.24679735
0.87099999 -0.48416984 0.24651434
0.87099999 -0.4855912 0.24651434
0.87099999 -0.48701259 0.24651434
0.87199998 -0.48899472 0.24679735
0.87199998 -0.49041772 0.24679735
0.87199998 -0.49184072 0.24679735
0.87199998 -0.49326372 0.24679735
0.87099999 -0.49411944 0.24651434
0.87099999 -0.4955408 0.24651434
0.87099999 -0.49696216 0.24651434
0.87099999 -0.49838355 0.24651434
0.84799999 -0.55026335 0.24000478
0.84799999 -0.55164719 0.24000478
0.847 -0.55237889 0.23972176
0.847 -0.55376107 0.23972176
0.847 -0.5551433 0.23972176
0.84799999 -0.55718255 0.24000478
0.81599998 0.27746096 0.22961639
0.81599998 0.27612934 0.22961639
0.81599998 0.27479771 0.22961639
0.815 0.27313098 0.229335
0.81400001 0.27146751 0.2290536
0.81400001 0.27013916 0.2290536
0.81300002 0.26848057 0.22877222
0.81300002 0.26715383 0.22877222
0.81300002 0.26582712 0.22877222
0.81099999 0.26384971 0.22820942
0.81 0.26220256 0.22792804
0.81 0.26088074 0.22792804
0.80900002 0.25923845 0.22764665
0.80900002 0.25791827 0.22764665
0.80699998 0.25596371 0.22708385
0.80599999 0.25433123 0.22680247
0.80599999 0.25301594 0.22680247
0.80599999 0.25170064 0.22680247
0.80599999 0.25038534 0.22680247
0.80599999 0.24907005 0.22680247
0.80599999 0.24775475 0.22680247
0.80599999 0.24643944 0.22680247
0.80599999 0.24512415 0.22680247
0.80699998 0.24411134 0.22708385
0.80800003 0.24309528 0.22736526
0.80800003 0.24177672 0.22736526
0.80900002 0.24075575 0.22764665
0.81 0.23973152 0.22792804
0.81 0.2384097 0.22792804
0.81099999 0.23738056 0.22820942
0.81300002 0.23663926 0.22877222
0.81300002 0.23531254 0.22877222
0.81400001 0.23427363 0.2290536
0.81599998 0.2335176 0.22961639
0.81599998 0.23218599 0.22961639
0.81699997 0.23113728 0.22989778
0.81699997 0.22980404 0.22989778
0.81900001 0.22903009 0.23046057
0.81999999 0.22797158 0.23074196
0.81999999 0.22663344 0.23074196
0.82099998 0.22557004 0.23102334
0.82099998 0.22423026 0.23102334
0.82099998 0.2228905 0.23102334
0.82099998 0.22155072 0.23102334
0.82099998 0.22021094 0.23102334
0.82099998 0.21887116 0.23102334
0.82200003 0.21779636 0.23130475
0.82200003 0.21645495 0.23130475
0.82200003 0.21511354 0.23130475
0.82200003 0.21377213 0.23130475
0.82200003 0.21243073 0.23130475
0.82200003 0.21108931 0.23130475
0.82300001 0.21000308 0.23158614
0.82300001 0.20866004 0.23158614
0.824 0.2075689 0.23186754
0.824 0.20622422 0.23186754
0.824 0.20487955 0.23186754
0.82499999 0.20378189 0.23214892
0.82499999 0.20243558 0.23214892
0.82499999 0.20108928 0.23214892
0.82499999 0.19974297 0.23214892
0.82499999 0.19839667 0.23214892
0.82499999 0.19705036 0.23214892
0.82599998 0.19594128 0.23243031
0.82599998 0.19459334 0.23243031
0.82599998 0.19324541 0.23243031
0.82700002 0.19212981 0.23271172
0.82599998 0.19054954 0.23243031
0.82599998 0.18920161 0.23243031
0.82599998 0.18785366 0.23243031
0.82599998 0.18650573 0.23243031
0.82599998 0.18515779 0.23243031
0.82599998 0.18380986 0.23243031
0.82599998 0.18246193 0.23243031
0.82599998 0.18111399 0.23243031
0.82599998 0.17976606 0.23243031
0.82599998 0.17841811 0.23243031
0.82599998 0.17707019 0.23243031
0.82499999 0.17550951 0.23214892
0.82499999 0.17416321 0.23214892
0.82499999 0.1728169 0.23214892
0.82499999 0.1714706 0.23214892
0.82499999 0.17012429 0.23214892
0.82499999 0.16877799 0.23214892
0.82499999 0.1674317 0.23214892
0.82499999 0.16608539 0.23214892
0.82499999 0.16473909 0.23214892
0.82499999 0.16339278 0.23214892
0.82499999 0.16204648 0.23214892
0.82499999 0.16070017 0.23214892
0.82599998 0.15954703 0.23243031
0.82599998 0.15819909 0.23243031
0.82599998 0.15685116 0.23243031
0.82700002 0.15569149 0.23271172
0.82599998 0.15415528 0.23243031
0.82599998 0.15280734 0.23243031
0.82700002 0.15164278 0.23271172
0.82700002 0.15029322 0.23271172
0.82599998 0.14876354 0.23243031
0.82599998 0.14741561 0.23243031
0.82599998 0.14606766 0.23243031
0.82599998 0.14471973 0.23243031
0.82599998 0.14337181 0.23243031
0.82599998 0.14202386 0.23243031
0.82599998 0.14067593 0.23243031
0.82599998 0.13932799 0.23243031
0.82599998 0.13798006 0.23243031
0.82599998 0.13663213 0.23243031
0.82599998 0.13528419 0.23243031
0.82599998 0.13393626 0.23243031
0.82700002 0.13274884 0.23271172
0.82700002 0.13139927 0.23271172
0.82700002 0.13004971 0.23271172
0.82800001 0.12885576 0.23299311
0.82800001 0.12750456 0.23299311
0.82800001 0.12615336 0.23299311
0.82800001 0.12480216 0.23299311
0.82800001 0.12345096 0.23299311
0.82800001 0.12209976 0.23299311
0.82800001 0.12074856 0.23299311
0.82800001 0.11939736 0.23299311
0.82800001 0.11804616 0.23299311
0.82800001 0.11669496 0.23299311
0.82999998 0.11562237 0.23355588
0.82999998 0.11426791 0.23355588
0.82999998 0.11291344 0.23355588
0.82999998 0.11155898 0.23355588
0.82999998 0.11020453 0.23355588
0.82999998 0.10885006 0.23355588
0.82999998 0.1074956 0.23355588
0.82999998 0.10614114 0.23355588
0.82999998 0.10478667 0.23355588
0.82999998 0.10343221 0.23355588
0.82999998 0.10207774 0.23355588
0.82999998 0.10072328 0.23355588
0.82999998 0.099368818 0.23355588
0.82999998 0.098014355 0.23355588
0.83099997 0.096776351 0.23383728
0.83099997 0.095420256 0.23383728
0.83099997 0.094064161 0.23383728
0.83200002 0.079242364 0.23411867
0.83200002 0.077884637 0.23411867
0.83200002 0.07652691 0.23411867
0.83200002 0.075169183 0.23411867
0.83399999 0.06037898 0.23468146
0.83399999 0.05901799 0.23468146
0.83399999 0.057657 0.23468146
0.83399999 0.05629601 0.23468146
0.83399999 0.054935019 0.23468146
0.833 0.053509794 0.23440006
0.833 0.052150432 0.23440006
0.833 0.050791074 0.23440006
0.833 0.049431715 0.23440006
0.833 0.048072357 0.23440006
0.833 0.046712998 0.23440006
0.833 0.04535364 0.23440006
0.833 0.043994281 0.23440006
0.833 0.042634923 0.23440006
0.83399999 0.041325115 0.23468146
0.83399999 0.039964125 0.23468146
0.833 0.038556848 0.23440006
0.833 0.037197489 0.23440006
0.833 0.035838131 0.23440006
0.83200002 0.034437381 0.23411867
0.83200002 0.033079654 0.23411867
0.83099997 0.031683799 0.23383728
0.83099997 0.030327704 0.23383728
0.83099997 0.028971609 0.23383728
0.82999998 0.027582282 0.23355588
0.82999998 0.026227821 0.23355588
0.82800001 0.024813423 0.23299311
0.82700002 0.023433886 0.23271172
0.82700002 0.02208432 0.23271172
0.82599998 0.020709679 0.23243031
0.82599998 0.019361744 0.23243031
0.82599998 0.018013809 0.23243031
0.82499999 0.016645696 0.23214892
0.82499999 0.015299393 0.23214892
0.82499999 0.01395309 0.23214892
0.82599998 0.012622067 0.23243031
0.82599998 0.011274132 0.23243031
0.82599998 0.0099261962 0.23243031
0.82599998 0.0085782604 0.23243031
0.82700002 0.0072390791 0.23271172
0.82700002 0.0058895117 0.23271172
0.82999998 0.0045564133 0.23355588
0.83099997 0.0032058081 0.23383728
0.83099997 0.0018497133 0.23383728
0.83200002 0.00049421255 0.23411867
0.83200002 -0.0008635142 0.23411867
0.833 -0.0022239108 0.23440006
0.83499998 -0.0035918725 0.23496285
0.83499998 -0.004954495 0.23496285
0.83600003 -0.0063246829 0.23524424
0.838 -0.0077073313 0.23580703
0.838 -0.00907485 0.23580703
0.83899999 -0.010454829 0.23608841
0.83899999 -0.011823978 0.23608841
0.838 -0.013177403 0.23580703
0.838 -0.014544922 0.23580703
0.838 -0.01591244 0.23580703
0.83600003 -0.017238718 0.23524424
0.83600003 -0.018602971 0.23524424
0.83600003 -0.019967226 0.23524424
0.83499998 -0.021305963 0.23496285
0.83499998 -0.022668585 0.23496285
0.83499998 -0.024031207 0.23496285
0.83499998 -0.025393831 0.23496285
0.83499998 -0.026756452 0.23496285
0.83499998 -0.028119074 0.23496285
0.83499998 -0.029481696 0.23496285
0.83499998 -0.03084432 0.23496285
0.83499998 -0.032206941 0.23496285
0.83499998 -0.033569563 0.23496285
0.83499998 -0.034932185 0.23496285
0.83499998 -0.036294807 0.23496285
0.83499998 -0.037657432 0.23496285
0.83499998 -0.039020054 0.23496285
0.83600003 -0.040431041 0.23524424
0.83600003 -0.041795295 0.23524424
0.83600003 -0.043159548 0.23524424
0.83600003 -0.044523802 0.23524424
0.83600003 -0.045888059 0.23524424
0.838 -0.047365353 0.23580703
0.838 -0.048732873 0.23580703
0.838 -0.05010039 0.23580703
0.83600003 -0.059530601 0.23524424
0.83600003 -0.060894854 0.23524424
0.83600003 -0.062259108 0.23524424
0.83600003 -0.063623361 0.23524424
0.83600003 -0.064987615 0.23524424
0.83600003 -0.066351868 0.23524424
0.83600003 -0.067716129 0.23524424
0.83600003 -0.069080383 0.23524424
0.83600003 -0.070444636 0.23524424
0.83600003 -0.07180889 0.23524424
0.83600003 -0.073173143 0.23524424
0.83600003 -0.074537396 0.23524424
0.83600003 -0.07590165 0.23524424
0.838 -0.077450752 0.23580703
0.838 -0.078818269 0.23580703
0.838 -0.080185786 0.23580703
0.838 -0.081553303 0.23580703
0.838 -0.08292082 0.23580703
0.83899999 -0.10081872 0.23608841
0.838 -0.10206608 0.23580703
0.83600003 -0.10318674 0.23524424
0.83600003 -0.10455099 0.23524424
0.83600003 -0.10591525 0.23524424
0.83600003 -0.1072795 0.23524424
0.83600003 -0.10864376 0.23524424
0.83499998 -0.10987642 0.23496285
0.83499998 -0.11123904 0.23496285
0.83399999 -0.11246681 0.23468146
0.83399999 -0.1138278 0.23468146
0.83399999 -0.11518879 0.23468146
0.83399999 -0.11654978 0.23468146
0.83499998 -0.11805215 0.23496285
0.83600003 -0.11955779 0.23524424
0.83600003 -0.12092204 0.23524424
0.838 -0.12257884 0.23580703
0.83899999 -0.12409427 0.23608841
0.83899999 -0.12546341 0.23608841
0.83999997 -0.12698373 0.2363698
0.83999997 -0.12835452 0.2363698
0.84100002 -0.12987974 0.23665121
0.84100002 -0.13125215 0.23665121
0.84100002 -0.13262457 0.23665121
0.84200001 -0.13415632 0.23693261
0.84200001 -0.13553035 0.23693261
0.84200001 -0.1369044 0.23693261
0.84200001 -0.13827845 0.23693261
0.84200001 -0.13965249 0.23693261
0.84200001 -0.14102654 0.23693261
0.84200001 -0.14240059 0.23693261
0.84200001 -0.14377463 0.23693261
0.84100002 -0.14497629 0.23665121
0.84100002 -0.14634871 0.23665121
0.84100002 -0.14772113 0.23665121
0.84100002 -0.14909354 0.23665121
0.84100002 -0.15046595 0.23665121
0.84100002 -0.15183836 0.23665121
0.84100002 -0.15321077 0.23665121
0.84100002 -0.15458319 0.23665121
0.84100002 -0.1559556 0.23665121
0.84200001 -0.15751509 0.23693261
0.84200001 -0.15888913 0.23693261
0.84200001 -0.16026318 0.23693261
0.84299999 -0.16182919 0.23721398
0.84299999 -0.16320486 0.23721398
0.84399998 -0.16477577 0.23749538
0.84399998 -0.16615309 0.23749538
0.84399998 -0.16753039 0.23749538
0.84600002 -0.16930796 0.23805818
0.84600002 -0.17068854 0.23805818
0.84600002 -0.17206912 0.23805818
0.84600002 -0.17344968 0.23805818
0.84600002 -0.17483026 0.23805818
0.847 -0.17641911 0.23833956
0.847 -0.17780133 0.23833956
0.847 -0.17918353 0.23833956
0.84799999 -0.18077891 0.23862095
0.84799999 -0.18216275 0.23862095
0.84799999 -0.18354659 0.23862095
0.84899998 -0.18514849 0.23890235
0.84899998 -0.18653396 0.23890235
0.84899998 -0.18791944 0.23890235
0.85000002 -0.18952788 0.23918375
0.85000002 -0.19091499 0.23918375
0.85000002 -0.19230209 0.23918375
0.85100001 -0.19391705 0.23946513
0.85100001 -0.19530578 0.23946513
0.85100001 -0.19669452 0.23946513
0.85100001 -0.19808325 0.23946513
0.85100001 -0.19947198 0.23946513
0.85299999 -0.20133276 0.24002792
0.85299999 -0.20272477 0.24002792
0.85299999 -0.20411676 0.24002792
0.85299999 -0.20550875 0.24002792
0.85299999 -0.20690076 0.24002792
0.85299999 -0.20829275 0.24002792
0.85299999 -0.20968474 0.24002792
0.85299999 -0.21107674 0.24002792
0.85299999 -0.21246874 0.24002792
0.85299999 -0.21386074 0.24002792
0.85299999 -0.21525273 0.24002792
0.85299999 -0.21664473 0.24002792
0.85299999 -0.21803673 0.24002792
0.85299999 -0.21942872 0.24002792
0.85399997 -0.22107959 0.2403093
0.85399997 -0.22247322 0.2403093
0.85399997 -0.22386685 0.2403093
0.85399997 -0.22526047 0.2403093
0.85399997 -0.2266541 0.2403093
0.85399997 -0.22804773 0.2403093
0.85399997 -0.22944136 0.2403093
0.85399997 -0.23083499 0.2403093
0.85500002 -0.23250055 0.24059071
0.85500002 -0.23389582 0.24059071
0.85500002 -0.23529108 0.24059071
0.85500002 -0.23668633 0.24059071
0.85500002 -0.23808159 0.24059071
0.85600001 -0.23975694 0.2408721
0.85600001 -0.24115384 0.2408721
0.85600001 -0.24255073 0.2408721
0.85600001 -0.24394763 0.2408721
0.85699999 -0.24563113 0.24115349
0.85699999 -0.24702965 0.24115349
0.85699999 -0.24842817 0.24115349
0.85699999 -0.2498267 0.24115349
0.85699999 -0.25122523 0.24115349
0.85900003 -0.25321332 0.24171628
0.85900003 -0.2546151 0.24171628
0.85900003 -0.25601688 0.24171628
0.86000001 -0.25771832 0.24199767
0.86000001 -0.25912175 0.24199767
0.86000001 -0.26052517 0.24199767
0.86000001 -0.26192859 0.24199767
0.86000001 -0.26333201 0.24199767
0.861 -0.26504326 0.24227905
0.861 -0.26644832 0.24227905
0.861 -0.26785338 0.24227905
0.861 -0.26925841 0.24227905
0.861 -0.27066347 0.24227905
0.861 -0.27206853 0.24227905
0.86199999 -0.27379119 0.24256045
0.86199999 -0.27519786 0.24256045
0.86299998 -0.27692544 0.24284184
0.86299998 -0.27833375 0.24284184
0.86299998 -0.27974206 0.24284184
0.86500001 -0.28180197 0.24340463
0.86500001 -0.28321353 0.24340463
0.86500001 -0.28462511 0.24340463
0.866 -0.28636739 0.24368602
0.866 -0.28778058 0.24368602
0.866 -0.28919378 0.24368602
0.86699998 -0.29094258 0.24396741
0.86699998 -0.29235741 0.24396741
0.86699998 -0.29377225 0.24396741
0.86699998 -0.29518712 0.24396741
0.866 -0.29625985 0.24368602
0.866 -0.29767305 0.24368602
0.866 -0.29908627 0.24368602
0.86500001 -0.30015248 0.24340463
0.86500001 -0.30156407 0.24340463
0.86500001 -0.30297565 0.24340463
0.86500001 -0.30438721 0.24340463
0.866 -0.30615231 0.24368602
0.866 -0.30756554 0.24368602
0.866 -0.30897874 0.24368602
0.86500001 -0.31003353 0.24340463
0.86500001 -0.31144512 0.24340463
0.86500001 -0.3128567 0.24340463
0.86500001 -0.31426826 0.24340463
0.86500001 -0.31567985 0.24340463
0.86500001 -0.31709144 0.24340463
0.86500001 -0.31850302 0.24340463
0.86500001 -0.31991458 0.24340463
0.86500001 -0.32132617 0.24340463
0.86500001 -0.32273775 0.24340463
0.86500001 -0.32414934 0.24340463
0.86299998 -0.32480815 0.24284184
0.86299998 -0.32621646 0.24284184
0.86299998 -0.32762477 0.24284184
0.86299998 -0.32903311 0.24284184
0.86299998 -0.33044142 0.24284184
0.86299998 -0.33184972 0.24284184
0.86199999 -0.33287188 0.24256045
0.86199999 -0.33427855 0.24256045
0.86199999 -0.33568525 0.24256045
0.86199999 -0.33709192 0.24256045
0.86299998 -0.3388913 0.24284184
0.86199999 -0.33990529 0.24256045
0.86199999 -0.34131199 0.24256045
0.86199999 -0.34271866 0.24256045
0.861 -0.34372613 0.24227905
0.861 -0.34513119 0.24227905
0.861 -0.34653625 0.24227905
0.861 -0.34794128 0.24227905
0.861 -0.34934634 0.24227905
0.861 -0.3507514 0.24227905
0.861 -0.35215646 0.24227905
0.86199999 -0.35397214 0.24256045
0.86199999 -0.35537881 0.24256045
0.86299998 -0.3571994 0.24284184
0.86299998 -0.35860771 0.24284184
0.86299998 -0.36001602 0.24284184
0.86500001 -0.36226195 0.24340463
0.86500001 -0.36367354 0.24340463
0.866 -0.36550719 0.24368602
0.866 -0.36692038 0.24368602
0.866 -0.36833361 0.24368602
0.86799997 -0.3706007 0.24424879
0.87 -0.37287438 0.24481159
0.87 -0.37429413 0.24481159
0.87199998 -0.37657756 0.24537437
0.87199998 -0.37800056 0.24537437
0.87199998 -0.37942356 0.24537437
0.87300003 -0.38128334 0.24565578
0.87300003 -0.38270798 0.24565578
0.87400001 -0.38457263 0.24593717
0.87599999 -0.38688216 0.24649994
0.87599999 -0.38831168 0.24649994
0.87699997 -0.39018613 0.24678133
0.87800002 -0.39206386 0.24706274
0.87800002 -0.39349663 0.24706274
0.87800002 -0.39492944 0.24706274
0.87800002 -0.39636222 0.24706274
0.87800002 -0.39779502 0.24706274
0.87800002 -0.39922783 0.24706274
0.87800002 -0.4006606 0.24706274
0.87800002 -0.40209341 0.24706274
0.87800002 -0.40352619 0.24706274
0.87800002 -0.40495899 0.24706274
0.87800002 -0.40639177 0.24706274
0.87800002 -0.40782458 0.24706274
0.87699997 -0.40879121 0.24678133
0.87699997 -0.41022238 0.24678133
0.87699997 -0.41165355 0.24678133
0.87699997 -0.41308472 0.24678133
0.87699997 -0.41451588 0.24678133
0.87699997 -0.41594702 0.24678133
0.87699997 -0.41737819 0.24678133
0.87699997 -0.41880935 0.24678133
0.87699997 -0.42024052 0.24678133
0.87699997 -0.42167169 0.24678133
0.87800002 -0.4235853 0.24706274
0.87699997 -0.42453399 0.24678133
0.87699997 -0.42596516 0.24678133
0.87699997 -0.42739633 0.24678133
0.87800002 -0.42931649 0.24706274
0.87800002 -0.43074927 0.24706274
0.87800002 -0.43218207 0.24706274
0.87699997 -0.43312097 0.24678133
0.87699997 -0.43455213 0.24678133
0.87699997 -0.4359833 0.24678133
0.87699997 -0.43741444 0.24678133
0.87699997 -0.4388456 0.24678133
0.87699997 -0.44027677 0.24678133
0.87699997 -0.44170794 0.24678133
0.87599999 -0.44263381 0.24649994
0.87599999 -0.44406334 0.24649994
0.87599999 -0.44549286 0.24649994
0.87599999 -0.44692239 0.24649994
0.87599999 -0.44835192 0.24649994
0.87400001 -0.44875458 0.24593717
0.87400001 -0.45018083 0.24593717
0.87400001 -0.45160711 0.24593717
0.87400001 -0.45303339 0.24593717
0.87300003 -0.45393968 0.24565578
0.87300003 -0.45536432 0.24565578
0.87300003 -0.45678893 0.24565578
0.87300003 -0.45821357 0.24565578
0.87300003 -0.45963821 0.24565578
0.87300003 -0.46106285 0.24565578
0.87400001 -0.46301723 0.24593717
0.87400001 -0.4644435 0.24593717
0.87300003 -0.46533674 0.24565578
0.87300003 -0.46676138 0.24565578
0.87199998 -0.4676497 0.24537437
0.87199998 -0.4690727 0.24537437
0.87199998 -0.4704957 0.24537437
0.87199998 -0.4719187 0.24537437
0.87199998 -0.4733417 0.24537437
0.87199998 -0.4747647 0.24537437
0.87099999 -0.47564161 0.24509299
0.87099999 -0.477063 0.24509299
0.87099999 -0.47848436 0.24509299
0.87099999 -0.47990572 0.24509299
0.87099999 -0.48132709 0.24509299
0.87099999 -0.48274848 0.24509299
0.87099999 -0.48416984 0.24509299
0.87099999 -0.4855912 0.24509299
0.87099999 -0.48701259 0.24509299
0.87099999 -0.48843396 0.24509299
0.87099999 -0.48985532 0.24509299
0.87099999 -0.49127668 0.24509299
0.87099999 -0.49269807 0.24509299
0.87099999 -0.49411944 0.24509299
0.87099999 -0.4955408 0.24509299
0.87099999 -0.49696216 0.24509299
0.87099999 -0.49838355 0.24509299
0.84799999 -0.55026335 0.23862095
0.84799999 -0.55164719 0.23862095
0.847 -0.55237889 0.23833956
0.847 -0.55376107 0.23833956
0.847 -0.5551433 0.23833956
0.84799999 -0.55718255 0.23862095
0.815 0.27446097 0.22800502
0.81400001 0.27279586 0.22772527
0.81400001 0.27146751 0.22772527
0.81400001 0.27013916 0.22772527
0.81300002 0.26848057 0.22744551
0.81199998 0.26682523 0.22716574
0.81199998 0.26550013 0.22716574
0.81099999 0.26384971 0.22688597
0.81 0.26220256 0.22660622
0.81 0.26088074 0.22660622
0.80900002 0.25923845 0.22632647
0.80900002 0.25791827 0.22632647
0.80699998 0.25596371 0.22576694
0.80599999 0.25433123 0.22548717
0.80599999 0.25301594 0.22548717
0.80599999 0.25170064 0.22548717
0.80500001 0.25007468 0.22520742
0.80500001 0.24876103 0.22520742
0.80500001 0.24744736 0.22520742
0.80599999 0.24643944 0.22548717
0.80599999 0.24512415 0.22548717
0.80599999 0.24380885 0.22548717
0.80699998 0.24279441 0.22576694
0.80699998 0.24147747 0.22576694
0.80800003 0.24045816 0.22604671
0.81 0.23973152 0.22660622
0.81 0.2384097 0.22660622
0.81099999 0.23738056 0.22688597
0.81300002 0.23663926 0.22744551
0.81300002 0.23531254 0.22744551
0.81400001 0.23427363 0.22772527
0.815 0.23323144 0.22800502
0.815 0.23190145 0.22800502
0.81699997 0.23113728 0.22856455
0.81699997 0.22980404 0.22856455
0.81900001 0.22903009 0.22912407
0.81999999 0.22797158 0.22940382
0.81999999 0.22663344 0.22940382
0.81999999 0.22529529 0.22940382
0.82099998 0.22423026 0.22968358
0.81999999 0.22261901 0.22940382
0.81999999 0.22128086 0.22940382
0.81999999 0.21994272 0.22940382
0.81999999 0.21860458 0.22940382
0.82099998 0.21753138 0.22968358
0.82200003 0.21645495 0.22996336
0.82200003 0.21511354 0.22996336
0.82200003 0.21377213 0.22996336
0.82200003 0.21243073 0.22996336
0.82200003 0.21108931 0.22996336
0.82300001 0.21000308 0.23024312
0.82300001 0.20866004 0.23024312
0.824 0.2075689 0.23052287
0.824 0.20622422 0.23052287
0.824 0.20487955 0.23052287
0.82499999 0.20378189 0.23080263
0.82499999 0.20243558 0.23080263
0.82499999 0.20108928 0.23080263
0.82499999 0.19974297 0.23080263
0.82499999 0.19839667 0.23080263
0.82499999 0.19705036 0.23080263
0.82599998 0.19594128 0.23108239
0.82599998 0.19459334 0.23108239
0.82599998 0.19324541 0.23108239
0.82700002 0.19212981 0.23136216
0.82599998 0.19054954 0.23108239
0.82599998 0.18920161 0.23108239
0.82599998 0.18785366 0.23108239
0.82599998 0.18650573 0.23108239
0.82599998 0.18515779 0.23108239
0.82599998 0.18380986 0.23108239
0.82599998 0.18246193 0.23108239
0.82700002 0.18133327 0.23136216
0.82599998 0.17976606 0.23108239
0.82599998 0.17841811 0.23108239
0.82599998 0.17707019 0.23108239
0.82599998 0.17572224 0.23108239
0.82599998 0.17437431 0.23108239
0.82599998 0.17302638 0.23108239
0.82599998 0.17167844 0.23108239
0.82599998 0.17033051 0.23108239
0.82599998 0.16898257 0.23108239
0.82499999 0.1674317 0.23080263
0.82499999 0.16608539 0.23080263
0.82499999 0.16473909 0.23080263
0.82499999 0.16339278 0.23080263
0.82499999 0.16204648 0.23080263
0.82499999 0.16070017 0.23080263
0.82599998 0.15954703 0.23108239
0.82599998 0.15819909 0.23108239
0.82599998 0.15685116 0.23108239
0.82700002 0.15569149 0.23136216
0.82599998 0.15415528 0.23108239
0.82599998 0.15280734 0.23108239
0.82700002 0.15164278 0.23136216
0.82700002 0.15029322 0.23136216
0.82599998 0.14876354 0.23108239
0.82599998 0.14741561 0.23108239
0.82599998 0.14606766 0.23108239
0.82599998 0.14471973 0.23108239
0.82599998 0.14337181 0.23108239
0.82599998 0.14202386 0.23108239
0.82599998 0.14067593 0.23108239
0.82599998 0.13932799 0.23108239
0.82599998 0.13798006 0.23108239
0.82599998 0.13663213 0.23108239
0.82599998 0.13528419 0.23108239
0.82599998 0.13393626 0.23108239
0.82700002 0.13274884 0.23136216
0.82700002 0.13139927 0.23136216
0.82700002 0.13004971 0.23136216
0.82700002 0.12870014 0.23136216
0.82800001 0.12750456 0.23164192
0.82800001 0.12615336 0.23164192
0.82800001 0.12480216 0.23164192
0.82800001 0.12345096 0.23164192
0.82999998 0.12239469 0.23220143
0.82999998 0.12104023 0.23220143
0.82999998 0.11968576 0.23220143
0.82999998 0.1183313 0.23220143
0.82999998 0.11697683 0.23220143
0.82999998 0.11562237 0.23220143
0.82999998 0.11426791 0.23220143
0.82999998 0.11291344 0.23220143
0.82999998 0.11155898 0.23220143
0.82999998 0.11020453 0.23220143
0.82999998 0.10885006 0.23220143
0.82999998 0.1074956 0.23220143
0.82999998 0.10614114 0.23220143
0.82999998 0.10478667 0.23220143
0.82999998 0.10343221 0.23220143
0.82999998 0.10207774 0.23220143
0.82999998 0.10072328 0.23220143
0.82999998 0.099368818 0.23220143
0.83099997 0.098132446 0.2324812
0.83099997 0.096776351 0.2324812
0.83099997 0.095420256 0.2324812
0.83099997 0.094064161 0.2324812
0.83099997 0.092708066 0.2324812
0.83099997 0.091351971 0.2324812
0.83099997 0.089995876 0.2324812
0.83099997 0.088639781 0.2324812
0.83099997 0.087283686 0.2324812
0.83200002 0.086030997 0.23276097
0.83200002 0.084673271 0.23276097
0.83200002 0.083315544 0.23276097
0.83200002 0.081957817 0.23276097
0.83099997 0.08050321 0.2324812
0.83099997 0.079147115 0.2324812
0.83099997 0.07779102 0.2324812
0.83099997 0.076434925 0.2324812
0.83099997 0.07507883 0.2324812
0.83200002 0.073811457 0.23276097
0.83200002 0.07245373 0.23276097
0.83200002 0.071096003 0.23276097
0.83200002 0.069738276 0.23276097
0.833 0.068462737 0.23304072
0.833 0.067103378 0.23304072
0.833 0.06574402 0.23304072
0.833 0.064384662 0.23304072
0.83399999 0.06037898 0.23332047
0.83399999 0.05901799 0.23332047
0.83399999 0.057657 0.23332047
0.83399999 0.05629601 0.23332047
0.833 0.054869153 0.23304072
0.833 0.053509794 0.23304072
0.833 0.052150432 0.23304072
0.833 0.050791074 0.23304072
0.83200002 0.049372375 0.23276097
0.83200002 0.048014648 0.23276097
0.83200002 0.046656922 0.23276097
0.833 0.04535364 0.23304072
0.833 0.043994281 0.23304072
0.833 0.042634923 0.23304072
0.833 0.041275565 0.23304072
0.833 0.039916206 0.23304072
0.83200002 0.038510561 0.23276097
0.83200002 0.037152834 0.23276097
0.83200002 0.035795107 0.23276097
0.83099997 0.034395989 0.2324812
0.83099997 0.033039894 0.2324812
0.83099997 0.031683799 0.2324812
0.83099997 0.030327704 0.2324812
0.83099997 0.028971609 0.2324812
0.82999998 0.027582282 0.23220143
0.82999998 0.026227821 0.23220143
0.82800001 0.024813423 0.23164192
0.82700002 0.023433886 0.23136216
0.82700002 0.02208432 0.23136216
0.82599998 0.020709679 0.23108239
0.82599998 0.019361744 0.23108239
0.82599998 0.018013809 0.23108239
0.82599998 0.016665872 0.23108239
0.82599998 0.015317937 0.23108239
0.82599998 0.013970003 0.23108239
0.82599998 0.012622067 0.23108239
0.82599998 0.011274132 0.23108239
0.82599998 0.0099261962 0.23108239
0.82599998 0.0085782604 0.23108239
0.82700002 0.0072390791 0.23136216
0.82700002 0.0058895117 0.23136216
0.82999998 0.0045564133 0.23220143
0.83099997 0.0032058081 0.2324812
0.83099997 0.0018497133 0.2324812
0.83200002 0.00049421255 0.23276097
0.83200002 -0.0008635142 0.23276097
0.83399999 -0.0022265804 0.23332047
0.83600003 -0.0035961743 0.23388001
0.83600003 -0.0049604285 0.23388001
0.838 -0.0063398136 0.23443952
0.838 -0.0077073313 0.23443952
0.838 -0.00907485 0.23443952
0.83899999 -0.010454829 0.23471928
0.83899999 -0.011823978 0.23471928
0.838 -0.013177403 0.23443952
0.838 -0.014544922 0.23443952
0.838 -0.01591244 0.23443952
0.838 -0.017279958 0.23443952
0.838 -0.018647475 0.23443952
0.83600003 -0.019967226 0.23388001
0.83499998 -0.021305963 0.23360023
0.83499998 -0.022668585 0.23360023
0.83499998 -0.024031207 0.23360023
0.83499998 -0.025393831 0.23360023
0.83499998 -0.026756452 0.23360023
0.83499998 -0.028119074 0.23360023
0.83499998 -0.029481696 0.23360023
0.83499998 -0.03084432 0.23360023
0.83499998 -0.032206941 0.23360023
0.83499998 -0.033569563 0.23360023
0.83499998 -0.034932185 0.23360023
0.83499998 -0.036294807 0.23360023
0.83499998 -0.037657432 0.23360023
0.83499998 -0.039020054 0.23360023
0.83600003 -0.040431041 0.23388001
0.83600003 -0.041795295 0.23388001
0.83600003 -0.043159548 0.23388001
0.83600003 -0.044523802 0.23388001
0.83600003 -0.045888059 0.23388001
0.83600003 -0.047252312 0.23388001
0.83600003 -0.048616566 0.23388001
0.83600003 -0.049980819 0.23388001
0.83600003 -0.051345076 0.23388001
0.83600003 -0.05270933 0.23388001
0.83600003 -0.054073583 0.23388001
0.83600003 -0.055437837 0.23388001
0.83600003 -0.05680209 0.23388001
0.83600003 -0.058166347 0.23388001
0.83600003 -0.059530601 0.23388001
0.83600003 -0.060894854 0.23388001
0.83499998 -0.062184632 0.23360023
0.83499998 -0.063547254 0.23360023
0.83499998 -0.064909875 0.23360023
0.83499998 -0.066272497 0.23360023
0.83499998 -0.067635119 0.23360023
0.83499998 -0.068997748 0.23360023
0.83499998 -0.07036037 0.23360023
0.83499998 -0.071722992 0.23360023
0.83499998 -0.073085614 0.23360023
0.83600003 -0.074537396 0.23388001
0.83600003 -0.07590165 0.23388001
0.83600003 -0.077265903 0.23388001
0.838 -0.078818269 0.23443952
0.838 -0.080185786 0.23443952
0.838 -0.081553303 0.23443952
0.838 -0.08292082 0.23443952
0.838 -0.10069856 0.23443952
0.83600003 -0.10182248 0.23388001
0.83499998 -0.1030633 0.23360023
0.83499998 -0.10442592 0.23360023
0.83399999 -0.10566185 0.23332047
0.83399999 -0.10702284 0.23332047
0.83399999 -0.10838383 0.23332047
0.833 -0.10961324 0.23304072
0.833 -0.1109726 0.23304072
0.833 -0.11233196 0.23304072
0.833 -0.11369132 0.23304072
0.833 -0.11505067 0.23304072
0.833 -0.11641003 0.23304072
0.83399999 -0.11791077 0.23332047
0.83499998 -0.11941477 0.23360023
0.83499998 -0.12077739 0.23360023
0.838 -0.12257884 0.23443952
0.838 -0.12394636 0.23443952
0.838 -0.12531388 0.23443952
0.83899999 -0.12683257 0.23471928
0.83899999 -0.12820172 0.23471928
0.83999997 -0.12972531 0.23499903
0.84100002 -0.13125215 0.23527882
0.84100002 -0.13262457 0.23527882
0.84100002 -0.13399698 0.23527882
0.84200001 -0.13553035 0.23555857
0.84200001 -0.1369044 0.23555857
0.84100002 -0.13811423 0.23527882
0.84100002 -0.13948664 0.23527882
0.84100002 -0.14085905 0.23527882
0.84100002 -0.14223146 0.23527882
0.84100002 -0.14360388 0.23527882
0.84100002 -0.14497629 0.23527882
0.84100002 -0.14634871 0.23527882
0.84100002 -0.14772113 0.23527882
0.84100002 -0.14909354 0.23527882
0.84100002 -0.15046595 0.23527882
0.84100002 -0.15183836 0.23527882
0.84100002 -0.15321077 0.23527882
0.84100002 -0.15458319 0.23527882
0.84100002 -0.1559556 0.23527882
0.84100002 -0.15732802 0.23527882
0.84100002 -0.15870044 0.23527882
0.84200001 -0.16026318 0.23555857
0.84299999 -0.16182919 0.23583832
0.84299999 -0.16320486 0.23583832
0.84299999 -0.16458054 0.23583832
0.84399998 -0.16615309 0.23611808
0.84399998 -0.16753039 0.23611808
0.84600002 -0.16930796 0.23667762
0.84600002 -0.17068854 0.23667762
0.84600002 -0.17206912 0.23667762
0.84600002 -0.17344968 0.23667762
0.84600002 -0.17483026 0.23667762
0.847 -0.17641911 0.23695737
0.847 -0.17780133 0.23695737
0.847 -0.17918353 0.23695737
0.84799999 -0.18077891 0.23723713
0.84799999 -0.18216275 0.23723713
0.84799999 -0.18354659 0.23723713
0.84899998 -0.18514849 0.23751688
0.84899998 -0.18653396 0.23751688
0.84899998 -0.18791944 0.23751688
0.85000002 -0.18952788 0.23779666
