# .PCD v0.7 - Point Cloud Data file format
VERSION 0.7
FIELDS x y z
SIZE 4 4 4
TYPE F F F
COUNT 1 1 1
WIDTH 1492
HEIGHT 1
VIEWPOINT 0 0 0 1 0 0 0
POINTS 1492
DATA ascii
0.85299999 0.13135433 0.233068
0.85299999 0.12996234 0.233068
0.84899998 0.12796743 0.23197506
0.84299999 0.12568739 0.23033567
0.87800002 0.14666647 0.23846607
0.87400001 0.144572 0.23737966
0.87400001 0.14314574 0.23737966
0.87 0.14107087 0.23629324
0.87 0.13965113 0.23629324
0.86400002 0.13727808 0.23466365
0.85900003 0.13508186 0.23330563
0.85900003 0.13368008 0.23330563
0.85299999 0.13135433 0.23167601
0.85299999 0.12996234 0.23167601
0.84899998 0.12796743 0.23058961
0.84299999 0.12568739 0.22896001
0.87800002 0.14666647 0.23703328
0.875 0.14473742 0.23622337
0.875 0.14330952 0.23622337
0.87199998 0.14139517 0.23541346
0.87199998 0.13997217 0.23541346
0.86699998 0.13775474 0.23406361
0.861 0.13539636 0.23244379
0.861 0.13399132 0.23244379
0.85600001 0.13181631 0.23109394
0.85600001 0.13041942 0.23109394
0.852 0.12841962 0.23001407
0.84799999 0.12643287 0.22893418
0.84299999 0.12293604 0.22758435
0.87800002 0.14666647 0.2356005
0.875 0.14473742 0.23479548
0.875 0.14330952 0.23479548
0.87199998 0.14139517 0.23399046
0.87199998 0.13997217 0.23399046
0.86799997 0.13791361 0.23291712
0.86299998 0.13571087 0.23157543
0.86299998 0.13430256 0.23157543
0.85799998 0.13212429 0.23023374
0.85799998 0.13072413 0.23023374
0.85500002 0.1288718 0.22942874
0.85000002 0.12673107 0.22808705
0.84600002 0.12337354 0.22701369
0.87800002 0.14666647 0.23416772
0.875 0.14473742 0.23336761
0.875 0.14330952 0.23336761
0.87199998 0.14139517 0.23256747
0.87199998 0.13997217 0.23256747
0.86799997 0.13791361 0.23150066
0.86299998 0.13571087 0.23016712
0.86299998 0.13430256 0.23016712
0.85799998 0.13212429 0.2288336
0.85799998 0.13072413 0.2288336
0.85500002 0.1288718 0.2280335
0.85000002 0.12673107 0.22669996
0.84600002 0.12337354 0.22563314
0.87599999 0.14633237 0.23220479
0.875 0.14473742 0.23193972
0.87400001 0.14314574 0.23167464
0.87199998 0.14139517 0.23114449
0.87199998 0.13997217 0.23114449
0.86799997 0.13791361 0.2300842
0.86400002 0.13586813 0.22902392
0.86400002 0.13445818 0.22902392
0.861 0.13258627 0.22822869
0.861 0.13118121 0.22822869
0.85799998 0.12932397 0.22743346
0.85299999 0.12717834 0.22610809
0.85299999 0.12578635 0.22610809
0.85000002 0.12395687 0.22531287
0.87599999 0.14633237 0.23077527
0.87599999 0.14490284 0.23077527
0.87400001 0.14314574 0.23024839
0.87300003 0.14155734 0.22998495
0.87300003 0.1401327 0.22998495
0.86900002 0.13807252 0.22893119
0.86500001 0.13602538 0.22787742
0.86500001 0.13461381 0.22787742
0.86299998 0.13289425 0.22735052
0.86299998 0.13148592 0.22735052
0.861 0.12977616 0.22682364
0.85699999 0.12777473 0.22576988
0.85699999 0.1263762 0.22576988
0.85500002 0.12468602 0.225243
0.87599999 0.14633237 0.22934575
0.87599999 0.14490284 0.22934575
0.87400001 0.14314574 0.22882214
0.87300003 0.14155734 0.22856034
0.87300003 0.1401327 0.22856034
0.86900002 0.13807252 0.22751309
0.86500001 0.13602538 0.22646585
0.86500001 0.13461381 0.22646585
0.86299998 0.13289425 0.22594222
0.86299998 0.13148592 0.22594222
0.861 0.12977616 0.22541861
0.85699999 0.12777473 0.22437136
0.85699999 0.1263762 0.22437136
0.85500002 0.12468602 0.22384775
0.87599999 0.14633237 0.22791624
0.87599999 0.14490284 0.22791624
0.87400001 0.14314574 0.22739589
0.87300003 0.14155734 0.22713572
0.87300003 0.1401327 0.22713572
0.86900002 0.13807252 0.22609501
0.86500001 0.13602538 0.22505429
0.86500001 0.13461381 0.22505429
0.86400002 0.13304824 0.2247941
0.86400002 0.13163829 0.2247941
0.86199999 0.12992689 0.22427374
0.85900003 0.12807292 0.22349322
0.85900003 0.12667114 0.22349322
0.85699999 0.12497768 0.22297285
0.875 0.14616533 0.22622818
0.875 0.14473742 0.22622818
0.87400001 0.14314574 0.22596964
0.87199998 0.14139517 0.22545254
0.87199998 0.13997217 0.22545254
0.86900002 0.13807252 0.22467691
0.86500001 0.13602538 0.22364272
0.86500001 0.13461381 0.22364272
0.86400002 0.13304824 0.22338417
0.86400002 0.13163829 0.22338417
0.86199999 0.12992689 0.22286707
0.85900003 0.12807292 0.22209145
0.85900003 0.12667114 0.22209145
0.85699999 0.12497768 0.22157435
0.875 0.14616533 0.2248003
0.875 0.14473742 0.2248003
0.87400001 0.14314574 0.22454339
0.87199998 0.14139517 0.22402956
0.87199998 0.13997217 0.22402956
0.86900002 0.13807252 0.22325882
0.86699998 0.13633989 0.22274499
0.86699998 0.13492505 0.22274499
0.86500001 0.13320222 0.22223115
0.86500001 0.13179065 0.22223115
0.86400002 0.13022834 0.22197424
0.86199999 0.12852021 0.2214604
0.86199999 0.12711352 0.2214604
0.85900003 0.12526935 0.22068967
0.87199998 0.14139517 0.22260657
0.87199998 0.13997217 0.22260657
0.86900002 0.13807252 0.22184072
0.86799997 0.13649714 0.22158542
0.86799997 0.13508067 0.22158542
0.86699998 0.1335102 0.22133015
0.86699998 0.13209537 0.22133015
0.86500001 0.13037907 0.22081959
0.86299998 0.12866929 0.22030902
0.86299998 0.12726098 0.22030902
0.86199999 0.12570684 0.22005373
0.87199998 0.14139517 0.22118357
0.87199998 0.13997217 0.22118357
0.86900002 0.13807252 0.22042263
0.86799997 0.13649714 0.22016896
0.86799997 0.13508067 0.22016896
0.86699998 0.1335102 0.21991532
0.86699998 0.13209537 0.21991532
0.86500001 0.13037907 0.21940802
0.86299998 0.12866929 0.21890071
0.86299998 0.12726098 0.21890071
0.86199999 0.12570684 0.21864706
0.86900002 0.13807252 0.21900454
0.86799997 0.13649714 0.2187525
0.86799997 0.13508067 0.2187525
0.86799997 0.13366419 0.2187525
0.86799997 0.13224772 0.2187525
0.86699998 0.13068052 0.21850049
0.86400002 0.12881839 0.21774444
0.86400002 0.12740844 0.21774444
0.86299998 0.12585266 0.21749242
0.86900002 0.13807252 0.21758644
0.86799997 0.13649714 0.21733604
0.86799997 0.13508067 0.21733604
0.86799997 0.13366419 0.21733604
0.86799997 0.13224772 0.21733604
0.86699998 0.13068052 0.21708566
0.86500001 0.12896749 0.21658489
0.86500001 0.12755591 0.21658489
0.86400002 0.12599851 0.21633451
0.86900002 0.13807252 0.21616836
0.86799997 0.13649714 0.21591958
0.86799997 0.13508067 0.21591958
0.86799997 0.13366419 0.21591958
0.86799997 0.13224772 0.21591958
0.86699998 0.13068052 0.21567084
0.86500001 0.12896749 0.21517333
0.86500001 0.12755591 0.21517333
0.86400002 0.12599851 0.21492457
0.86900002 0.13665441 0.21475026
0.86900002 0.13523631 0.21475026
0.86799997 0.13366419 0.21450312
0.86799997 0.13224772 0.21450312
0.86799997 0.13083124 0.21450312
0.86500001 0.12896749 0.21376176
0.86500001 0.12755591 0.21376176
0.86500001 0.12614433 0.21376176
0.86299998 0.12303603 0.21326751
0.86900002 0.13665441 0.21333218
0.86900002 0.13523631 0.21333218
0.86799997 0.13366419 0.21308666
0.86799997 0.13224772 0.21308666
0.86799997 0.13083124 0.21308666
0.86500001 0.12896749 0.2123502
0.86500001 0.12755591 0.2123502
0.86500001 0.12614433 0.2123502
0.86299998 0.12444435 0.21185921
0.86299998 0.12303603 0.21185921
0.87199998 0.13854916 0.21264565
0.86900002 0.13665441 0.21191408
0.86900002 0.13523631 0.21191408
0.86900002 0.13381819 0.21191408
0.86900002 0.1324001 0.21191408
0.86799997 0.13083124 0.2116702
0.86699998 0.12926568 0.21142635
0.86699998 0.12785083 0.21142635
0.86699998 0.126436 0.21142635
0.86400002 0.12458856 0.21069477
0.86400002 0.12317861 0.21069477
0.87199998 0.13854916 0.21122266
0.87 0.13681166 0.21073821
0.87 0.13539192 0.21073821
0.87 0.13397218 0.21073821
0.87 0.13255244 0.21073821
0.86799997 0.13083124 0.21025375
0.86799997 0.12941477 0.21025375
0.86799997 0.12799829 0.21025375
0.86699998 0.126436 0.21001153
0.86699998 0.12502114 0.21001153
0.86699998 0.12360631 0.21001153
0.87199998 0.13854916 0.20979968
0.87 0.13681166 0.20931849
0.87 0.13539192 0.20931849
0.87 0.13397218 0.20931849
0.87 0.13255244 0.20931849
0.86799997 0.13083124 0.20883729
0.86799997 0.12941477 0.20883729
0.86799997 0.12799829 0.20883729
0.86699998 0.126436 0.20859669
0.86699998 0.12502114 0.20859669
0.86699998 0.12360631 0.20859669
0.87199998 0.13854916 0.20837668
0.87199998 0.13712616 0.20837668
0.87199998 0.13570316 0.20837668
0.87199998 0.13428016 0.20837668
0.87199998 0.13285716 0.20837668
0.86900002 0.13098198 0.2076598
0.86900002 0.12956387 0.2076598
0.86900002 0.12814577 0.2076598
0.86799997 0.12658182 0.20742083
0.86699998 0.12502114 0.20718186
0.86699998 0.12360631 0.20718186
0.87300003 0.13870806 0.20719104
0.87300003 0.13728343 0.20719104
0.87300003 0.13585879 0.20719104
0.87300003 0.13443416 0.20719104
0.87300003 0.13300952 0.20719104
0.87 0.13113271 0.20647904
0.87 0.12971297 0.20647904
0.87 0.12829323 0.20647904
0.87 0.12687349 0.20647904
0.86900002 0.12530956 0.20624171
0.86900002 0.12389145 0.20624171
0.86799997 0.12091593 0.20600437
0.87400001 0.14314574 0.20600212
0.87400001 0.14171948 0.20600212
0.87400001 0.14029321 0.20600212
0.87300003 0.13870806 0.20576642
0.87300003 0.13728343 0.20576642
0.87300003 0.13585879 0.20576642
0.87300003 0.13443416 0.20576642
0.87300003 0.13300952 0.20576642
0.87 0.13113271 0.2050593
0.87 0.12971297 0.2050593
0.87 0.12829323 0.2050593
0.87 0.12687349 0.2050593
0.86900002 0.12530956 0.20482361
0.86900002 0.12389145 0.20482361
0.87400001 0.14314574 0.20457587
0.87400001 0.14171948 0.20457587
0.87400001 0.14029321 0.20457587
0.87300003 0.13870806 0.2043418
0.87300003 0.13728343 0.2043418
0.87300003 0.13585879 0.2043418
0.87300003 0.13443416 0.2043418
0.87300003 0.13300952 0.2043418
0.87199998 0.13143416 0.20410772
0.87199998 0.13001116 0.20410772
0.87199998 0.12858815 0.20410772
0.87199998 0.12716515 0.20410772
0.87 0.12545376 0.20363958
0.87 0.12403402 0.20363958
0.87400001 0.14314574 0.20314962
0.87400001 0.14171948 0.20314962
0.87400001 0.14029321 0.20314962
0.87300003 0.13870806 0.20291717
0.87300003 0.13728343 0.20291717
0.87300003 0.13585879 0.20291717
0.87300003 0.13443416 0.20291717
0.87300003 0.13300952 0.20291717
0.87199998 0.13143416 0.20268473
0.87199998 0.13001116 0.20268473
0.87199998 0.12858815 0.20268473
0.87199998 0.12716515 0.20268473
0.87 0.12403402 0.20221986
0.875 0.14330952 0.20195416
0.87400001 0.14171948 0.20172335
0.87400001 0.14029321 0.20172335
0.87400001 0.13886695 0.20172335
0.87400001 0.13744068 0.20172335
0.87400001 0.13601442 0.20172335
0.87400001 0.13458815 0.20172335
0.87400001 0.13316189 0.20172335
0.87300003 0.1315849 0.20149256
0.87199998 0.13001116 0.20126174
0.87199998 0.12858815 0.20126174
0.87199998 0.12716515 0.20126174
0.87300003 0.12588635 0.20149256
0.87300003 0.12446173 0.20149256
0.87599999 0.1434733 0.20075545
0.875 0.14188163 0.20052628
0.875 0.14045373 0.20052628
0.875 0.13902584 0.20052628
0.875 0.13759793 0.20052628
0.875 0.13617003 0.20052628
0.875 0.13474214 0.20052628
0.875 0.13331424 0.20052628
0.87400001 0.13173562 0.2002971
0.87400001 0.13030936 0.2002971
0.875 0.12903054 0.20052628
0.875 0.12760265 0.20052628
0.875 0.12617475 0.20052628
0.875 0.12474685 0.20052628
0.87599999 0.1434733 0.19932593
0.875 0.14188163 0.19909839
0.875 0.14045373 0.19909839
0.875 0.13902584 0.19909839
0.875 0.13759793 0.19909839
0.875 0.13617003 0.19909839
0.875 0.13474214 0.19909839
0.875 0.13331424 0.19909839
0.87400001 0.13173562 0.19887085
0.87400001 0.13030936 0.19887085
0.875 0.12903054 0.19909839
0.875 0.12760265 0.19909839
0.875 0.12617475 0.19909839
0.875 0.12474685 0.19909839
0.87800002 0.14380087 0.19834824
0.87599999 0.14204377 0.19789642
0.87599999 0.14061424 0.19789642
0.87599999 0.13918471 0.19789642
0.87800002 0.1380697 0.19834824
0.87800002 0.13663691 0.19834824
0.87800002 0.13520412 0.19834824
0.87800002 0.13377132 0.19834824
0.87800002 0.13233852 0.19834824
0.87599999 0.13060755 0.19789642
0.87599999 0.129178 0.19789642
0.87599999 0.12774847 0.19789642
0.87800002 0.12660736 0.19834824
0.87900001 0.12531713 0.19857416
0.87900001 0.14396465 0.19713974
0.87900001 0.14253023 0.19713974
0.87900001 0.1410958 0.19713974
0.87900001 0.13966137 0.19713974
0.87900001 0.13822696 0.19713974
0.88 0.13694815 0.19736402
0.88 0.1355121 0.19736402
0.87900001 0.13392368 0.19713974
0.87900001 0.13248925 0.19713974
0.87900001 0.13105483 0.19713974
0.88 0.12976786 0.19736402
0.88 0.12833181 0.19736402
0.88 0.12689576 0.19736402
0.88300002 0.12588739 0.19803685
0.88200003 0.12286619 0.19781257
0.87900001 0.14396465 0.19570532
0.87900001 0.14253023 0.19570532
0.87900001 0.1410958 0.19570532
0.87900001 0.13966137 0.19570532
0.87900001 0.13822696 0.19570532
0.88 0.13694815 0.19592796
0.88 0.1355121 0.19592796
0.87900001 0.13392368 0.19570532
0.87900001 0.13248925 0.19570532
0.87900001 0.13105483 0.19570532
0.88 0.12976786 0.19592796
0.88 0.12833181 0.19592796
0.88 0.12689576 0.19592796
0.88300002 0.12588739 0.19659591
0.88200003 0.12286619 0.19637327
0.88 0.14412844 0.19449192
0.88 0.14269237 0.19449192
0.88200003 0.14157736 0.19493397
0.88200003 0.14013804 0.19493397
0.88200003 0.13869873 0.19493397
0.88200003 0.13725939 0.19493397
0.88200003 0.13582008 0.19493397
0.88200003 0.13438076 0.19493397
0.88200003 0.13294144 0.19493397
0.88200003 0.13150212 0.19493397
0.88300002 0.13021025 0.19515496
0.88300002 0.12876931 0.19515496
0.884 0.12747255 0.19537598
0.88499999 0.12617253 0.19559699
0.88499999 0.12472831 0.19559699
0.88700002 0.12356271 0.19603902
0.88 0.14412844 0.19305588
0.88 0.14269237 0.19305588
0.88200003 0.14157736 0.19349465
0.88200003 0.14013804 0.19349465
0.88200003 0.13869873 0.19349465
0.88200003 0.13725939 0.19349465
0.88200003 0.13582008 0.19349465
0.884 0.13468547 0.19393341
0.884 0.13324289 0.19393341
0.884 0.13180031 0.19393341
0.88499999 0.13050517 0.19415279
0.88499999 0.12906097 0.19415279
0.88700002 0.12790515 0.19459157
0.889 0.12674281 0.19503032
0.889 0.12529206 0.19503032
0.889 0.12384132 0.19503032
0.88300002 0.14317884 0.1922731
0.88300002 0.14173788 0.1922731
0.88300002 0.14029692 0.1922731
0.88300002 0.13885598 0.1922731
0.884 0.13757065 0.19249085
0.884 0.13612805 0.19249085
0.884 0.13468547 0.19249085
0.884 0.13324289 0.19249085
0.884 0.13180031 0.19249085
0.88499999 0.13050517 0.19270858
0.88499999 0.12906097 0.19270858
0.88700002 0.12790515 0.1931441
0.889 0.12674281 0.19357958
0.889 0.12384132 0.19357958
0.889 0.12093983 0.19357958
0.88499999 0.14205891 0.19126439
0.884 0.14045581 0.19104826
0.884 0.13901323 0.19104826
0.88499999 0.13772626 0.19126439
0.88499999 0.13628204 0.19126439
0.88700002 0.13514255 0.19169663
0.88700002 0.13369507 0.19169663
0.88700002 0.1322476 0.19169663
0.88800001 0.13094757 0.19191274
0.88800001 0.12949847 0.19191274
0.889 0.12819354 0.19212885
0.89200002 0.1271705 0.19277722
0.88499999 0.14205891 0.18982019
0.884 0.14045581 0.1896057
0.884 0.13901323 0.1896057
0.88499999 0.13772626 0.18982019
0.88499999 0.13628204 0.18982019
0.88700002 0.13514255 0.19024916
0.88700002 0.13369507 0.19024916
0.88700002 0.1322476 0.19024916
0.88800001 0.13094757 0.19046365
0.88800001 0.12949847 0.19046365
0.889 0.12819354 0.19067813
0.89200002 0.1271705 0.1913216
0.88499999 0.14205891 0.18837598
0.88499999 0.1406147 0.18837598
0.88499999 0.13917048 0.18837598
0.88700002 0.13803752 0.18880169
0.88700002 0.13659003 0.18880169
0.88800001 0.13529491 0.18901455
0.88800001 0.13384579 0.18901455
0.88800001 0.13239668 0.18901455
0.889 0.13109504 0.1892274
0.889 0.12964429 0.1892274
0.88999999 0.12833774 0.18944025
0.89300001 0.12731308 0.19007882
0.89300001 0.1258558 0.19007882
0.89399999 0.12453783 0.19029167
0.88499999 0.14205891 0.18693177
0.88499999 0.1406147 0.18693177
0.88700002 0.139485 0.18735424
0.88800001 0.13819313 0.18756545
0.88800001 0.13674402 0.18756545
0.88800001 0.13529491 0.18756545
0.889 0.13399652 0.18777667
0.889 0.13254578 0.18777667
0.88999999 0.1312425 0.18798789
0.88999999 0.12979013 0.18798789
0.89300001 0.12877035 0.18862157
0.89399999 0.12745564 0.18883277
0.89399999 0.12453783 0.18883277
0.88499999 0.14205891 0.18548757
0.88499999 0.1406147 0.18548757
0.88700002 0.139485 0.18590677
0.88800001 0.13819313 0.18611635
0.88800001 0.13674402 0.18611635
0.88800001 0.13529491 0.18611635
0.889 0.13399652 0.18632594
0.889 0.13254578 0.18632594
0.88999999 0.1312425 0.18653552
0.88999999 0.12979013 0.18653552
0.89300001 0.12877035 0.18716431
0.89399999 0.12745564 0.18737389
0.89399999 0.12453783 0.18737389
0.88499999 0.14205891 0.18404338
0.88499999 0.1406147 0.18404338
0.88700002 0.139485 0.1844593
0.88800001 0.13819313 0.18466726
0.88800001 0.13674402 0.18466726
0.889 0.13544726 0.18487521
0.88999999 0.13414726 0.18508317
0.88999999 0.13269487 0.18508317
0.89300001 0.13168488 0.18570705
0.89300001 0.13022763 0.18570705
0.89300001 0.12877035 0.18570705
0.89600003 0.12774079 0.18633093
0.89600003 0.12481645 0.18633093
0.88700002 0.14237995 0.18301183
0.88700002 0.14093247 0.18301183
0.88800001 0.13964225 0.18321815
0.889 0.13834876 0.18342447
0.889 0.13689801 0.18342447
0.88999999 0.13559963 0.18363081
0.89200002 0.13444871 0.18404347
0.89200002 0.13299307 0.18404347
0.89300001 0.13168488 0.18424979
0.89300001 0.13022763 0.18424979
0.89399999 0.12891455 0.18445611
0.89700001 0.12788334 0.18507509
0.89700001 0.12495575 0.18507509
0.88700002 0.14237995 0.18156436
0.88700002 0.14093247 0.18156436
0.88800001 0.13964225 0.18176906
0.889 0.13834876 0.18197376
0.889 0.13689801 0.18197376
0.88999999 0.13559963 0.18217844
0.89200002 0.13444871 0.18258783
0.89200002 0.13299307 0.18258783
0.89300001 0.13168488 0.18279253
0.89300001 0.13022763 0.18279253
0.89399999 0.12891455 0.18299723
0.89700001 0.12788334 0.18361132
0.89700001 0.12641954 0.18361132
0.89700001 0.12495575 0.18361132
0.88800001 0.14254047 0.18031996
0.88800001 0.14109136 0.18031996
0.88800001 0.13964225 0.18031996
0.88999999 0.13850437 0.18072608
0.88999999 0.137052 0.18072608
0.89200002 0.13590434 0.18113221
0.89300001 0.13459943 0.18133527
0.89300001 0.13314216 0.18133527
0.89399999 0.13183235 0.18153833
0.89399999 0.13037345 0.18153833
0.89600003 0.12920295 0.18194446
0.89700001 0.12788334 0.18214753
0.89700001 0.12641954 0.18214753
0.89999998 0.12537366 0.18275671
0.88800001 0.14254047 0.17887086
0.88800001 0.14109136 0.17887086
0.88800001 0.13964225 0.17887086
0.88999999 0.13850437 0.17927372
0.88999999 0.137052 0.17927372
0.89200002 0.13590434 0.17967659
0.89300001 0.13459943 0.17987801
0.89300001 0.13314216 0.17987801
0.89399999 0.13183235 0.18007945
0.89399999 0.13037345 0.18007945
0.89600003 0.12920295 0.18048231
0.89700001 0.12788334 0.18068375
0.89700001 0.12641954 0.18068375
0.89999998 0.12537366 0.18128803
0.89999998 0.12243627 0.18128803
0.88700002 0.14237995 0.17722197
0.88700002 0.14093247 0.17722197
0.889 0.13979951 0.17762156
0.88999999 0.13850437 0.17782135
0.88999999 0.137052 0.17782135
0.89200002 0.13590434 0.17822096
0.89300001 0.13459943 0.17842075
0.89300001 0.13314216 0.17842075
0.89399999 0.13183235 0.17862056
0.89399999 0.13037345 0.17862056
0.89600003 0.12920295 0.17902017
0.89700001 0.12788334 0.17921996
0.89700001 0.12641954 0.17921996
0.89999998 0.12537366 0.17981935
0.90100002 0.12404264 0.18001916
0.90100002 0.12257232 0.18001916
0.90100002 0.11963166 0.18001916
0.88700002 0.14237995 0.1757745
0.88700002 0.14093247 0.1757745
0.889 0.13979951 0.17617083
0.88999999 0.13850437 0.176369
0.88999999 0.137052 0.176369
0.89200002 0.13590434 0.17676534
0.89300001 0.13459943 0.17696351
0.89300001 0.13314216 0.17696351
0.89399999 0.13183235 0.17716166
0.89399999 0.13037345 0.17716166
0.89600003 0.12920295 0.177558
0.898 0.12802592 0.17795433
0.898 0.12656048 0.17795433
0.89999998 0.12537366 0.17835067
0.90100002 0.12257232 0.17854884
0.88700002 0.14237995 0.17432703
0.88700002 0.14093247 0.17432703
0.889 0.13979951 0.17472009
0.88999999 0.13850437 0.17491664
0.88999999 0.137052 0.17491664
0.89200002 0.13590434 0.17530972
0.89300001 0.13459943 0.17550625
0.89300001 0.13314216 0.17550625
0.89399999 0.13183235 0.17570278
0.89399999 0.13037345 0.17570278
0.89600003 0.12920295 0.17609586
0.89700001 0.12788334 0.17629239
0.89700001 0.12641954 0.17629239
0.89999998 0.12537366 0.17688198
0.88800001 0.14254047 0.17307447
0.88800001 0.14109136 0.17307447
0.889 0.13979951 0.17326938
0.88999999 0.13850437 0.17346427
0.88999999 0.137052 0.17346427
0.89200002 0.13590434 0.17385408
0.89300001 0.13459943 0.17404899
0.89300001 0.13314216 0.17404899
0.89399999 0.13183235 0.17424388
0.89399999 0.13037345 0.17424388
0.89600003 0.12920295 0.1746337
0.89700001 0.12788334 0.1748286
0.89700001 0.12641954 0.1748286
0.89999998 0.12537366 0.17541331
0.88800001 0.1454387 0.17162538
0.889 0.14270099 0.17181864
0.889 0.14125024 0.17181864
0.88999999 0.13995676 0.17201191
0.88999999 0.13850437 0.17201191
0.88999999 0.137052 0.17201191
0.89200002 0.13590434 0.17239846
0.89300001 0.13459943 0.17259173
0.89300001 0.13314216 0.17259173
0.89399999 0.13183235 0.172785
0.89399999 0.13037345 0.172785
0.89700001 0.12934715 0.17336482
0.898 0.12802592 0.17355809
0.898 0.12656048 0.17355809
0.89999998 0.12537366 0.17394462
0.90200001 0.12270835 0.17433117
0.88800001 0.1454387 0.17017627
0.889 0.14270099 0.17036791
0.889 0.14125024 0.17036791
0.88999999 0.13995676 0.17055956
0.88999999 0.13850437 0.17055956
0.88999999 0.137052 0.17055956
0.89200002 0.13590434 0.17094283
0.89300001 0.13459943 0.17113447
0.89300001 0.13314216 0.17113447
0.89399999 0.13183235 0.17132612
0.89399999 0.13037345 0.17132612
0.89700001 0.12934715 0.17190103
0.898 0.12802592 0.17209268
0.898 0.12656048 0.17209268
0.89999998 0.12537366 0.17247595
0.90200001 0.12270835 0.17285924
0.89200002 0.14318255 0.16948721
0.89200002 0.14172691 0.16948721
0.89300001 0.14042851 0.16967721
0.89300001 0.13897125 0.16967721
0.89300001 0.13751398 0.16967721
0.89300001 0.13605671 0.16967721
0.89399999 0.13475016 0.16986722
0.89399999 0.13329126 0.16986722
0.89399999 0.13183235 0.16986722
0.89399999 0.13037345 0.16986722
0.89700001 0.12934715 0.17043725
0.89999998 0.12831105 0.17100726
0.89999998 0.12684235 0.17100726
0.90100002 0.12551297 0.17119728
0.89200002 0.14318255 0.16803159
0.89200002 0.14172691 0.16803159
0.89300001 0.14042851 0.16821995
0.89300001 0.13897125 0.16821995
0.89300001 0.13751398 0.16821995
0.89300001 0.13605671 0.16821995
0.89399999 0.13475016 0.16840833
0.89399999 0.13329126 0.16840833
0.89399999 0.13183235 0.16840833
0.89399999 0.13037345 0.16840833
0.89700001 0.12934715 0.16897346
0.89999998 0.12831105 0.16953859
0.89999998 0.12684235 0.16953859
0.90100002 0.12551297 0.16972697
0.89600003 0.14382462 0.16732293
0.89600003 0.14236246 0.16732293
0.89600003 0.14090028 0.16732293
0.89600003 0.13943812 0.16732293
0.89600003 0.13797596 0.16732293
0.89600003 0.13651378 0.16732293
0.89600003 0.13505162 0.16732293
0.89600003 0.13358945 0.16732293
0.89700001 0.13227475 0.16750968
0.89700001 0.13081095 0.16750968
0.898 0.12949134 0.16769642
0.90100002 0.12845363 0.16825666
0.90100002 0.1269833 0.16825666
0.90200001 0.12565227 0.1684434
0.90499997 0.12311647 0.16900362
0.89999998 0.14446668 0.16660123
0.89999998 0.142998 0.16660123
0.898 0.14121479 0.16623101
0.898 0.13974936 0.16623101
0.89700001 0.13812995 0.16604589
0.89700001 0.13666615 0.16604589
0.89700001 0.13520235 0.16604589
0.89700001 0.13373855 0.16604589
0.898 0.13242221 0.16623101
0.898 0.13095678 0.16623101
0.89999998 0.12977974 0.16660123
0.90100002 0.12845363 0.16678634
0.90100002 0.1269833 0.16678634
0.90399998 0.12593088 0.16734168
0.90499997 0.12459332 0.16752678
0.90499997 0.12311647 0.16752678
0.89999998 0.14446668 0.16513254
0.89999998 0.142998 0.16513254
0.898 0.14121479 0.16476558
0.898 0.13974936 0.16476558
0.89700001 0.13812995 0.1645821
0.89700001 0.13666615 0.1645821
0.89700001 0.13520235 0.1645821
0.89700001 0.13373855 0.1645821
0.898 0.13242221 0.16476558
0.898 0.13095678 0.16476558
0.89999998 0.12977974 0.16513254
0.90100002 0.12845363 0.16531603
0.90100002 0.1269833 0.16531603
0.90399998 0.12593088 0.16586646
0.90499997 0.12311647 0.16604994
0.90200001 0.14478773 0.16402757
0.90200001 0.14331578 0.16402757
0.90100002 0.14168656 0.16384572
0.90100002 0.14021623 0.16384572
0.89999998 0.13859192 0.16366386
0.898 0.1368185 0.16330017
0.898 0.13535307 0.16330017
0.898 0.13388763 0.16330017
0.89999998 0.13271713 0.16366386
0.89999998 0.13124843 0.16366386
0.89999998 0.12977974 0.16366386
0.90200001 0.12859619 0.16402757
0.90200001 0.12712424 0.16402757
0.90399998 0.12593088 0.16439126
0.90499997 0.12459332 0.1645731
0.90499997 0.12311647 0.1645731
0.90499997 0.14526927 0.16309626
0.90399998 0.14363354 0.16291605
0.90200001 0.14184381 0.16255562
0.90200001 0.14037186 0.16255562
0.90100002 0.1387459 0.16237541
0.89999998 0.13712321 0.16219518
0.89999998 0.13565452 0.16219518
0.89999998 0.13418582 0.16219518
0.89999998 0.13271713 0.16219518
0.89999998 0.13124843 0.16219518
0.90100002 0.12992395 0.16237541
0.90200001 0.12859619 0.16255562
0.90200001 0.12712424 0.16255562
0.90399998 0.12593088 0.16291605
0.90499997 0.12459332 0.16309626
0.90499997 0.12311647 0.16309626
0.90499997 0.14526927 0.16161942
0.90399998 0.14363354 0.16144085
0.90200001 0.14184381 0.16108368
0.90200001 0.14037186 0.16108368
0.90100002 0.1387459 0.16090509
0.89999998 0.13712321 0.1607265
0.89999998 0.13565452 0.1607265
0.89999998 0.13418582 0.1607265
0.89999998 0.13271713 0.1607265
0.89999998 0.13124843 0.1607265
0.90100002 0.12992395 0.16090509
0.90200001 0.12859619 0.16108368
0.90200001 0.12712424 0.16108368
0.90399998 0.12593088 0.16144085
0.90499997 0.12459332 0.16161942
0.90499997 0.12311647 0.16161942
0.90799999 0.14575084 0.16067345
0.90600002 0.14395133 0.16031955
0.90399998 0.14215831 0.15996563
0.90399998 0.1406831 0.15996563
0.90200001 0.13889989 0.15961173
0.90100002 0.13727558 0.15943478
0.90100002 0.13580525 0.15943478
0.90100002 0.13433492 0.15943478
0.90100002 0.13286459 0.15943478
0.90100002 0.13139427 0.15943478
0.90100002 0.12992395 0.15943478
0.90200001 0.12859619 0.15961173
0.90200001 0.12712424 0.15961173
0.90399998 0.12593088 0.15996563
0.90499997 0.12311647 0.16014259
0.90799999 0.14575084 0.15919171
0.90600002 0.14395133 0.15884107
0.90399998 0.14215831 0.15849043
0.90399998 0.1406831 0.15849043
0.90200001 0.13889989 0.1581398
0.90100002 0.13727558 0.15796447
0.90100002 0.13580525 0.15796447
0.90100002 0.13433492 0.15796447
0.90100002 0.13286459 0.15796447
0.90100002 0.13139427 0.15796447
0.90100002 0.12992395 0.15796447
0.90200001 0.12859619 0.1581398
0.90200001 0.12712424 0.1581398
0.90399998 0.12593088 0.15849043
0.90399998 0.12298043 0.15849043
0.90899998 0.14591135 0.15788367
0.90600002 0.14247283 0.15736261
0.90600002 0.14099436 0.15736261
0.90499997 0.13936186 0.15718891
0.90399998 0.13773265 0.15701522
0.90399998 0.13625742 0.15701522
0.90200001 0.13448402 0.15666784
0.90200001 0.13301206 0.15666784
0.90200001 0.1315401 0.15666784
0.90200001 0.13006814 0.15666784
0.90200001 0.12859619 0.15666784
0.90200001 0.12712424 0.15666784
0.90399998 0.12593088 0.15701522
0.90399998 0.12298043 0.15701522
0.91000003 0.14607188 0.15657237
0.90899998 0.14294459 0.15640029
0.90899998 0.14146121 0.15640029
0.90799999 0.13982384 0.15622824
0.90499997 0.137885 0.15571207
0.90499997 0.13640815 0.15571207
0.90399998 0.13478221 0.15554002
0.90399998 0.13330698 0.15554002
0.90399998 0.13183177 0.15554002
0.90399998 0.13035654 0.15554002
0.90399998 0.12888132 0.15554002
0.90399998 0.12740609 0.15554002
0.90399998 0.12593088 0.15554002
0.90499997 0.12459332 0.15571207
0.90499997 0.12311647 0.15571207
0.91000003 0.14607188 0.15508737
0.91000003 0.14458686 0.15508737
0.90899998 0.14294459 0.15491693
0.90899998 0.14146121 0.15491693
0.90799999 0.13982384 0.1547465
0.90499997 0.137885 0.15423523
0.90499997 0.13640815 0.15423523
0.90399998 0.13478221 0.1540648
0.90399998 0.13330698 0.1540648
0.90399998 0.13183177 0.1540648
0.90399998 0.13035654 0.1540648
0.90399998 0.12888132 0.1540648
0.90399998 0.12740609 0.1540648
0.90399998 0.12593088 0.1540648
0.90399998 0.12445565 0.1540648
0.90399998 0.12298043 0.1540648
0.912 0.14639291 0.15393995
0.912 0.14490464 0.15393995
0.91000003 0.14310186 0.15360236
0.91000003 0.14161684 0.15360236
0.90899998 0.13997783 0.15343356
0.90600002 0.13803738 0.15292719
0.90600002 0.13655889 0.15292719
0.90499997 0.1349313 0.15275839
0.90399998 0.13330698 0.1525896
0.90399998 0.13183177 0.1525896
0.90399998 0.13035654 0.1525896
0.90399998 0.12888132 0.1525896
0.90399998 0.12740609 0.1525896
0.90399998 0.12593088 0.1525896
0.90399998 0.12445565 0.1525896
0.90200001 0.12270835 0.15225202
0.91299999 0.14655343 0.15261884
0.912 0.14341636 0.15245169
0.912 0.14192808 0.15245169
0.91000003 0.14013183 0.15211737
0.90899998 0.13849445 0.1519502
0.90899998 0.13701107 0.1519502
0.90600002 0.1350804 0.15144871
0.90600002 0.13360192 0.15144871
0.90399998 0.13183177 0.15111439
0.90399998 0.13035654 0.15111439
0.90399998 0.12888132 0.15111439
0.90399998 0.12740609 0.15111439
0.90399998 0.12593088 0.15111439
0.90399998 0.12445565 0.15111439
0.90200001 0.12270835 0.15078007
0.912 0.14341636 0.15096343
0.912 0.14192808 0.15096343
0.91000003 0.14013183 0.15063237
0.90899998 0.13849445 0.15046683
0.90899998 0.13701107 0.15046683
0.90600002 0.1350804 0.14997025
0.90499997 0.13345444 0.14980471
0.90399998 0.13183177 0.14963917
0.90399998 0.13035654 0.14963917
0.90399998 0.12888132 0.14963917
0.90399998 0.12740609 0.14963917
0.90399998 0.12593088 0.14963917
0.90399998 0.12445565 0.14963917
0.90200001 0.12270835 0.14930813
0.91299999 0.14357361 0.14963906
0.91299999 0.1420837 0.14963906
0.912 0.14043981 0.14947516
0.91000003 0.13864681 0.14914738
0.91000003 0.13716181 0.14914738
0.90799999 0.13537858 0.14881957
0.90499997 0.13345444 0.14832787
0.90499997 0.13197759 0.14832787
0.90499997 0.13050073 0.14832787
0.90499997 0.12902388 0.14832787
0.90399998 0.12740609 0.14816397
0.90399998 0.12593088 0.14816397
0.90399998 0.12445565 0.14816397
0.90200001 0.12270835 0.14783618
0.91299999 0.14357361 0.14814916
0.91299999 0.1420837 0.14814916
0.912 0.14043981 0.1479869
0.91000003 0.13864681 0.14766237
0.91000003 0.13716181 0.14766237
0.90899998 0.13552769 0.1475001
0.90600002 0.13360192 0.14701331
0.90600002 0.13212343 0.14701331
0.90499997 0.13050073 0.14685103
0.90499997 0.12902388 0.14685103
0.90499997 0.12754703 0.14685103
0.90399998 0.12593088 0.14668876
0.90399998 0.12445565 0.14668876
0.90200001 0.12270835 0.14636424
0.91299999 0.14357361 0.14665927
0.91299999 0.1420837 0.14665927
0.91299999 0.1405938 0.14665927
0.91000003 0.13864681 0.14617737
0.91000003 0.13716181 0.14617737
0.90899998 0.13552769 0.14601673
0.90600002 0.13360192 0.14553483
0.90600002 0.13212343 0.14553483
0.90499997 0.13050073 0.14537419
0.90499997 0.12902388 0.14537419
0.90499997 0.12754703 0.14537419
0.90399998 0.12593088 0.14521356
0.90399998 0.12445565 0.14521356
0.90200001 0.12270835 0.14489229
0.91299999 0.14357361 0.14516938
0.91299999 0.1420837 0.14516938
0.91299999 0.1405938 0.14516938
0.912 0.13895153 0.14501037
0.912 0.13746326 0.14501037
0.90899998 0.13552769 0.14453337
0.90600002 0.13360192 0.14405636
0.90600002 0.13212343 0.14405636
0.90600002 0.13064495 0.14405636
0.90600002 0.12916645 0.14405636
0.90499997 0.12754703 0.14389735
0.90399998 0.12593088 0.14373834
0.90399998 0.12445565 0.14373834
0.90399998 0.12298043 0.14373834
0.91299999 0.14357361 0.14367948
0.91299999 0.1420837 0.14367948
0.91299999 0.1405938 0.14367948
0.912 0.13895153 0.14352211
0.912 0.13746326 0.14352211
0.90899998 0.13552769 0.14305
0.90600002 0.13360192 0.14257789
0.90600002 0.13212343 0.14257789
0.90600002 0.13064495 0.14257789
0.90600002 0.12916645 0.14257789
0.90499997 0.12754703 0.14242052
0.90399998 0.12593088 0.14226314
0.90399998 0.12445565 0.14226314
0.90399998 0.12298043 0.14226314
0.91399997 0.14373086 0.14234532
0.91399997 0.14223933 0.14234532
0.91399997 0.14074779 0.14234532
0.91299999 0.13910389 0.14218959
0.91299999 0.13761398 0.14218959
0.91000003 0.13567679 0.14172238
0.90799999 0.13389684 0.14141089
0.90799999 0.13241509 0.14141089
0.90600002 0.13064495 0.14109942
0.90600002 0.12916645 0.14109942
0.90600002 0.12768798 0.14109942
0.90499997 0.12607017 0.14094368
0.90499997 0.12459332 0.14094368
0.90399998 0.12298043 0.14078793
0.90200001 0.11976443 0.14047647
0.91399997 0.14373086 0.14085379
0.91399997 0.14223933 0.14085379
0.91399997 0.14074779 0.14085379
0.91399997 0.13925624 0.14085379
0.91399997 0.13776471 0.14085379
0.912 0.13597497 0.14054559
0.90899998 0.1340443 0.14008327
0.90899998 0.13256092 0.14008327
0.90799999 0.13093334 0.13992916
0.90799999 0.12945159 0.13992916
0.90600002 0.12768798 0.13962094
0.90499997 0.12607017 0.13946684
0.90499997 0.12459332 0.13946684
0.90499997 0.12311647 0.13946684
0.90200001 0.11976443 0.13900451
0.91399997 0.14373086 0.13936228
0.91399997 0.14074779 0.13936228
0.91399997 0.13925624 0.13936228
0.91399997 0.13776471 0.13936228
0.912 0.13597497 0.13905732
0.90899998 0.1340443 0.13859989
0.90899998 0.13256092 0.13859989
0.90799999 0.13093334 0.13844742
0.90799999 0.12945159 0.13844742
0.90600002 0.12768798 0.13814248
0.90499997 0.12607017 0.13799
0.90499997 0.12459332 0.13799
0.90499997 0.12311647 0.13799
0.90399998 0.12150521 0.13783751
0.90200001 0.11976443 0.13753258
0.91600001 0.14404538 0.13817243
0.91600001 0.14255057 0.13817243
0.91600001 0.14105578 0.13817243
0.91399997 0.13925624 0.13787074
0.91399997 0.13776471 0.13787074
0.91299999 0.13612406 0.1377199
0.91000003 0.13419177 0.13726738
0.91000003 0.13270676 0.13726738
0.90799999 0.13093334 0.13696569
0.90799999 0.12945159 0.13696569
0.90799999 0.12796985 0.13696569
0.90600002 0.12620948 0.136664
0.90600002 0.124731 0.136664
0.90499997 0.12311647 0.13651316
0.90399998 0.12002999 0.13636231
0.917 0.14420263 0.13682686
0.917 0.1427062 0.13682686
0.91600001 0.14105578 0.13667764
0.91600001 0.13956097 0.13667764
0.91600001 0.13806616 0.13667764
0.91399997 0.13627316 0.13637921
0.912 0.13448669 0.1360808
0.912 0.13299842 0.1360808
0.90899998 0.13107754 0.13563316
0.90899998 0.12959416 0.13563316
0.90799999 0.12796985 0.13548395
0.90600002 0.12620948 0.13518552
0.90600002 0.124731 0.13518552
0.90600002 0.12325252 0.13518552
0.90499997 0.12163962 0.13503632
0.90499997 0.12016276 0.13503632
0.917 0.14420263 0.13533044
0.917 0.1427062 0.13533044
0.91600001 0.14105578 0.13518286
0.91600001 0.13956097 0.13518286
0.91600001 0.13806616 0.13518286
0.91399997 0.13627316 0.1348877
0.912 0.13448669 0.13459253
0.912 0.13299842 0.13459253
0.90899998 0.13107754 0.13414979
0.90899998 0.12959416 0.13414979
0.90799999 0.12796985 0.13400221
0.90600002 0.12620948 0.13370706
0.90600002 0.124731 0.13370706
0.90600002 0.12325252 0.13370706
0.90499997 0.12163962 0.13355948
0.90499997 0.12016276 0.13355948
0.917 0.14420263 0.133834
0.917 0.1427062 0.133834
0.917 0.14120977 0.133834
0.91600001 0.13956097 0.13368806
0.91600001 0.13806616 0.13368806
0.91600001 0.13657136 0.13368806
0.91299999 0.13463415 0.13325022
0.91299999 0.13314424 0.13325022
0.91000003 0.13122174 0.13281238
0.91000003 0.12973674 0.13281238
0.90899998 0.12811078 0.13266642
0.90799999 0.12648809 0.13252048
0.90799999 0.12500635 0.13252048
0.90600002 0.12325252 0.13222858
0.90600002 0.12177403 0.13222858
0.90600002 0.12029554 0.13222858
0.917 0.14420263 0.13233759
0.917 0.14120977 0.13233759
0.91600001 0.13956097 0.13219327
0.91600001 0.13806616 0.13219327
0.91600001 0.13657136 0.13219327
0.91299999 0.13463415 0.13176033
0.91299999 0.13314424 0.13176033
0.91000003 0.13122174 0.13132738
0.91000003 0.12973674 0.13132738
0.90899998 0.12811078 0.13118306
0.90799999 0.12648809 0.13103874
0.90799999 0.12500635 0.13103874
0.90600002 0.12325252 0.13075012
0.90600002 0.12177403 0.13075012
0.90600002 0.12029554 0.13075012
0.91799998 0.14435989 0.13098384
0.91799998 0.14136375 0.13098384
0.91799998 0.13986568 0.13098384
0.91799998 0.13836761 0.13098384
0.917 0.13672045 0.13084117
0.91399997 0.13478161 0.13041312
0.91399997 0.13329008 0.13041312
0.91299999 0.13165434 0.13027042
0.91299999 0.13016443 0.13027042
0.91000003 0.12825172 0.12984239
0.90899998 0.1266274 0.12969969
0.90899998 0.12514402 0.12969969
0.90799999 0.12352459 0.12955701
0.90799999 0.12204284 0.12955701
0.90799999 0.12056109 0.12955701
0.91799998 0.14435989 0.12948579
0.91799998 0.14136375 0.12948579
0.91799998 0.13986568 0.12948579
0.92000002 0.13866907 0.12976789
0.91799998 0.13686955 0.12948579
0.91600001 0.13507655 0.12920369
0.91600001 0.13358174 0.12920369
0.91399997 0.13179854 0.12892158
0.91399997 0.13030699 0.12892158
0.912 0.12853359 0.12863949
0.91000003 0.12676671 0.12835738
0.91000003 0.12528169 0.12835738
0.90899998 0.12366063 0.12821633
0.90799999 0.12204284 0.12807527
0.90799999 0.12056109 0.12807527
0.91799998 0.14435989 0.12798774
0.91799998 0.14286181 0.12798774
0.91799998 0.14136375 0.12798774
0.91799998 0.13986568 0.12798774
0.92000002 0.13866907 0.12826659
0.91799998 0.13686955 0.12798774
0.91600001 0.13507655 0.1277089
0.91600001 0.13358174 0.1277089
0.91399997 0.13179854 0.12743005
0.91399997 0.13030699 0.12743005
0.912 0.12853359 0.12715122
0.91000003 0.12676671 0.12687239
0.91000003 0.12528169 0.12687239
0.90899998 0.12366063 0.12673296
0.90799999 0.12204284 0.12659355
0.90799999 0.12056109 0.12659355
0.921 0.14483166 0.12690306
0.921 0.14182572 0.12690306
0.921 0.14032276 0.12690306
0.921 0.1388198 0.12690306
0.92000002 0.13716774 0.12676527
0.917 0.13522401 0.12635189
0.917 0.13372758 0.12635189
0.91399997 0.13179854 0.12593853
0.91399997 0.13030699 0.12593853
0.91299999 0.12867452 0.12580074
0.912 0.1270453 0.12566295
0.912 0.12555704 0.12566295
0.91000003 0.12379668 0.12538739
0.90899998 0.12217725 0.12524959
0.90899998 0.12069387 0.12524959
0.92199999 0.14197971 0.12553626
0.92199999 0.14047512 0.12553626
0.92199999 0.13897052 0.12553626
0.921 0.13731684 0.1254001
0.91799998 0.13537148 0.12499163
0.91799998 0.1338734 0.12499163
0.91600001 0.13208695 0.12471932
0.91600001 0.13059214 0.12471932
0.91299999 0.12867452 0.12431085
0.912 0.1270453 0.12417469
0.912 0.12555704 0.12417469
0.91000003 0.12379668 0.12390239
0.90899998 0.12217725 0.12376622
0.90899998 0.12069387 0.12376622
0.92199999 0.14197971 0.12403168
0.92199999 0.14047512 0.12403168
0.92199999 0.13897052 0.12403168
0.921 0.13731684 0.12389715
0.91799998 0.13537148 0.12349357
0.91799998 0.1338734 0.12349357
0.91600001 0.13208695 0.12322453
0.91600001 0.13059214 0.12322453
0.91299999 0.12867452 0.12282095
0.912 0.1270453 0.12268643
0.912 0.12555704 0.12268643
0.91000003 0.12379668 0.12241738
0.90899998 0.12217725 0.12228286
0.90899998 0.12069387 0.12228286
0.92400002 0.1422877 0.12279288
0.92400002 0.14077984 0.12279288
0.92400002 0.13927197 0.12279288
0.92199999 0.13746592 0.12252709
0.92000002 0.1356664 0.12226132
0.92000002 0.13416508 0.12226132
0.917 0.13223115 0.12186264
0.917 0.1307347 0.12186264
0.91399997 0.12881546 0.12146395
0.91299999 0.12718461 0.12133106
0.91299999 0.12569471 0.12133106
0.912 0.12406875 0.12119817
0.91000003 0.12231167 0.12093239
0.91000003 0.12082665 0.12093239
0.92400002 0.1422877 0.12128504
0.92400002 0.14077984 0.12128504
0.92400002 0.13927197 0.12128504
0.92199999 0.13746592 0.12102251
0.92000002 0.1356664 0.12075999
0.92000002 0.13416508 0.12075999
0.917 0.13223115 0.12036621
0.917 0.1307347 0.12036621
0.91399997 0.12881546 0.11997242
0.91299999 0.12718461 0.11984117
0.91299999 0.12569471 0.11984117
0.912 0.12406875 0.11970991
0.91000003 0.12231167 0.11944739
0.91000003 0.12082665 0.11944739
0.92799997 0.14593244 0.1202957
0.92699999 0.14274967 0.12016608
0.92500001 0.1409322 0.11990682
0.92500001 0.1394227 0.11990682
0.92400002 0.13776413 0.1197772
0.92000002 0.1356664 0.11925868
0.92000002 0.13416508 0.11925868
0.917 0.13223115 0.11886979
0.917 0.1307347 0.11886979
0.91600001 0.12909733 0.11874016
0.91299999 0.12718461 0.11835127
0.91299999 0.12569471 0.11835127
0.912 0.12406875 0.11822164
0.91000003 0.12231167 0.11796239
0.91000003 0.12082665 0.11796239
0.92799997 0.14290366 0.11878133
0.92500001 0.1409322 0.11839735
0.92500001 0.1394227 0.11839735
0.92500001 0.13791321 0.11839735
0.921 0.13581386 0.11788536
0.921 0.1343109 0.11788536
0.91799998 0.13237533 0.11750136
0.91799998 0.13087727 0.11750136
0.91600001 0.12909733 0.11724537
0.91399997 0.12732391 0.11698937
0.91399997 0.12583238 0.11698937
0.912 0.12406875 0.11673338
0.91000003 0.12231167 0.11647739
0.91000003 0.12082665 0.11647739
0.92799997 0.14290366 0.11726696
0.92500001 0.1394227 0.11688787
0.92500001 0.13791321 0.11688787
0.921 0.13581386 0.11638241
0.921 0.1343109 0.11638241
0.91799998 0.13237533 0.1160033
0.91799998 0.13087727 0.1160033
0.91600001 0.12909733 0.11575058
0.91399997 0.12732391 0.11549784
0.91399997 0.12583238 0.11549784
0.912 0.12406875 0.11524512
0.91000003 0.12231167 0.11499239
0.91000003 0.12082665 0.11499239
0.92900002 0.14305766 0.11587732
0.92699999 0.13972415 0.11562786
0.92500001 0.13791321 0.11537839
0.921 0.13581386 0.11487946
0.921 0.1343109 0.11487946
0.91799998 0.13237533 0.11450525
0.91799998 0.13087727 0.11450525
0.917 0.12923826 0.11438052
0.91399997 0.12732391 0.11400632
0.91399997 0.12583238 0.11400632
0.912 0.12406875 0.11375686
0.90899998 0.12217725 0.11338265
0.90899998 0.12069387 0.11338265
0.92900002 0.14305766 0.11436132
0.92699999 0.13972415 0.11411511
0.92699999 0.1382114 0.11411511
0.92199999 0.13596132 0.1134996
0.92199999 0.13445674 0.1134996
0.92000002 0.13266374 0.11325341
0.92000002 0.13116241 0.11325341
0.917 0.12923826 0.1128841
0.91399997 0.12732391 0.11251479
0.91399997 0.12583238 0.11251479
0.91299999 0.12420479 0.1123917
0.90899998 0.12217725 0.11189929
0.90899998 0.12069387 0.11189929
0.92900002 0.14305766 0.11284532
0.92699999 0.13972415 0.11260238
0.92500001 0.13791321 0.11235943
0.92199999 0.13596132 0.11199503
0.92199999 0.13445674 0.11199503
0.92000002 0.13266374 0.11175209
0.92000002 0.13116241 0.11175209
0.917 0.12923826 0.11138768
0.91399997 0.12732391 0.11102326
0.91399997 0.12583238 0.11102326
0.912 0.12406875 0.11078033
0.90899998 0.12217725 0.11041592
0.90899998 0.12069387 0.11041592
0.90799999 0.11759759 0.11029445
0.92900002 0.14305766 0.11132931
0.92699999 0.14123692 0.11108963
0.92699999 0.13972415 0.11108963
0.92500001 0.13791321 0.11084996
0.92199999 0.13596132 0.11049044
0.92199999 0.13445674 0.11049044
0.92000002 0.13266374 0.11025077
0.92000002 0.13116241 0.11025077
0.917 0.12923826 0.10989126
0.91399997 0.12732391 0.10953174
0.91399997 0.12583238 0.10953174
0.912 0.12406875 0.10929207
0.912 0.12258048 0.10929207
0.90899998 0.12069387 0.10893255
0.90799999 0.11759759 0.10881271
0.92900002 0.14305766 0.10981331
0.92699999 0.14123692 0.10957689
0.92699999 0.13972415 0.10957689
0.92500001 0.13791321 0.10934048
0.92199999 0.13596132 0.10898586
0.92199999 0.13445674 0.10898586
0.92000002 0.13266374 0.10874946
0.92000002 0.13116241 0.10874946
0.917 0.12923826 0.10839483
0.91399997 0.12732391 0.10804021
0.91399997 0.12583238 0.10804021
0.912 0.12406875 0.10780381
0.912 0.12258048 0.10780381
0.90899998 0.12069387 0.10744918
0.90600002 0.11881705 0.10709457
0.90600002 0.11733857 0.10709457
0.92900002 0.14305766 0.1082973
0.92699999 0.14123692 0.10806415
0.92699999 0.13972415 0.10806415
0.92500001 0.13791321 0.10783101
0.92199999 0.13596132 0.10748128
0.92199999 0.13445674 0.10748128
0.921 0.13280794 0.10736471
0.921 0.13130498 0.10736471
0.917 0.12923826 0.10689841
0.91600001 0.12760253 0.10678184
0.91600001 0.12610772 0.10678184
0.912 0.12406875 0.10631554
0.912 0.12258048 0.10631554
0.90899998 0.12069387 0.10596582
0.90600002 0.11881705 0.1056161
0.90600002 0.11733857 0.1056161
0.92799997 0.13987488 0.10666635
0.92699999 0.1382114 0.10655141
0.92400002 0.13625626 0.10620659
0.92400002 0.1347484 0.10620659
0.921 0.13280794 0.10586176
0.921 0.13130498 0.10586176
0.91799998 0.1293792 0.10551693
0.91600001 0.12760253 0.10528705
0.91600001 0.12610772 0.10528705
0.912 0.12406875 0.10482728
0.912 0.12258048 0.10482728
0.90899998 0.12069387 0.10448245
0.90600002 0.11881705 0.10413763
0.90600002 0.11733857 0.10413763
0.92699999 0.13972415 0.10503867
0.92699999 0.1382114 0.10503867
0.92400002 0.13625626 0.10469874
0.92400002 0.1347484 0.10469874
0.921 0.13280794 0.10435881
0.921 0.13130498 0.10435881
0.91799998 0.1293792 0.10401887
0.91600001 0.12760253 0.10379226
0.91600001 0.12610772 0.10379226
0.912 0.12406875 0.10333902
0.912 0.12258048 0.10333902
0.90899998 0.12069387 0.10299908
0.90600002 0.11881705 0.10265916
0.90600002 0.11733857 0.10265916
0.92699999 0.13972415 0.10352593
0.92699999 0.1382114 0.10352593
0.92400002 0.13625626 0.1031909
0.92400002 0.1347484 0.1031909
0.92199999 0.13295214 0.10296754
0.92199999 0.13144754 0.10296754
0.91799998 0.1293792 0.10252082
0.91600001 0.12760253 0.10229747
0.91600001 0.12610772 0.10229747
0.91299999 0.12420479 0.10196243
0.91299999 0.12271488 0.10196243
0.90899998 0.12069387 0.10151572
0.90600002 0.11881705 0.10118069
0.90600002 0.11733857 0.10118069
0.92799997 0.13987488 0.10212323
0.92699999 0.1382114 0.10201319
0.92500001 0.13640372 0.1017931
0.92500001 0.13489424 0.1017931
0.92199999 0.13295214 0.10146295
0.92199999 0.13144754 0.10146295
0.92000002 0.12966108 0.10124286
0.917 0.12774183 0.10091272
0.917 0.12624539 0.10091272
0.91299999 0.12420479 0.10047253
0.91299999 0.12271488 0.10047253
0.91000003 0.12082665 0.1001424
0.90600002 0.11881705 0.099702209
0.90600002 0.11733857 0.099702209
0.92699999 0.13972415 0.10050045
0.92699999 0.1382114 0.10050045
0.92500001 0.13640372 0.10028362
0.92500001 0.13489424 0.10028362
0.92199999 0.13295214 0.099958375
0.92199999 0.13144754 0.099958375
0.92000002 0.12966108 0.099741548
0.917 0.12774183 0.099416301
0.917 0.12624539 0.099416301
0.91299999 0.12420479 0.09898264
0.91299999 0.12271488 0.09898264
0.91000003 0.12082665 0.098657399
0.90600002 0.11881705 0.098223738
0.90600002 0.11733857 0.098223738
0.92699999 0.13972415 0.098987706
0.92699999 0.1382114 0.098987706
0.92699999 0.13669865 0.098987706
0.92699999 0.1351859 0.098987706
0.92400002 0.13324054 0.098667361
0.92400002 0.13173269 0.098667361
0.921 0.129802 0.098347008
0.91799998 0.12788112 0.098026663
0.91799998 0.12638307 0.098026663
0.91399997 0.12434083 0.097599529
0.91399997 0.12284929 0.097599529
0.91000003 0.12082665 0.097172402
0.90799999 0.11907934 0.096958831
0.90799999 0.11759759 0.096958831
0.92699999 0.13972415 0.097474962
0.92699999 0.13669865 0.097474962
0.92699999 0.1351859 0.097474962
0.92400002 0.13324054 0.097159512
0.92400002 0.13173269 0.097159512
0.921 0.129802 0.096844062
0.91799998 0.12788112 0.096528605
0.91799998 0.12638307 0.096528605
0.91399997 0.12434083 0.096108004
0.91399997 0.12284929 0.096108004
0.912 0.1210922 0.095897704
0.90799999 0.11907934 0.095477097
0.90799999 0.11759759 0.095477097
0.92799997 0.13987488 0.096065745
0.92699999 0.13669865 0.095962226
0.92699999 0.1351859 0.095962226
0.92500001 0.13338473 0.09575519
0.92500001 0.13187525 0.09575519
0.921 0.129802 0.095341109
0.91799998 0.12788112 0.095030554
0.91799998 0.12638307 0.095030554
0.91399997 0.12434083 0.094616473
0.91399997 0.12284929 0.094616473
0.912 0.1210922 0.094409436
0.90799999 0.11907934 0.093995363
0.90799999 0.11759759 0.093995363
0.92799997 0.13987488 0.09455137
0.92799997 0.1383605 0.09455137
0.92799997 0.13684611 0.09455137
0.92799997 0.13533172 0.09455137
0.92500001 0.13338473 0.094245709
0.92500001 0.13187525 0.094245709
0.92199999 0.12994294 0.093940049
0.92000002 0.12815975 0.093736276
0.92000002 0.12665841 0.093736276
0.91600001 0.12461292 0.093328729
0.91600001 0.12311811 0.093328729
0.91299999 0.12122498 0.093023062
0.90899998 0.11921049 0.092615515
0.90899998 0.1177271 0.092615515
0.92799997 0.13987488 0.093036994
0.92799997 0.1383605 0.093036994
0.92799997 0.13684611 0.093036994
0.92799997 0.13533172 0.093036994
0.92500001 0.13338473 0.092736237
0.92500001 0.13187525 0.092736237
0.92199999 0.12994294 0.092435464
0.92000002 0.12815975 0.092234954
0.92000002 0.12665841 0.092234954
0.91600001 0.12461292 0.091833934
0.91600001 0.12311811 0.091833934
0.91299999 0.12122498 0.091533169
0.90899998 0.11921049 0.091132142
0.90899998 0.1177271 0.091132142
0.92900002 0.14002562 0.09162125
0.92799997 0.1383605 0.091522627
0.92799997 0.13684611 0.091522627
0.92799997 0.13533172 0.091522627
0.92500001 0.13338473 0.091226757
0.92500001 0.13187525 0.091226757
0.92400002 0.13022482 0.091128133
0.921 0.12829904 0.090832263
0.921 0.12679608 0.090832263
0.917 0.12474895 0.09043777
0.917 0.12325252 0.09043777
