# .PCD v0.7 - Point Cloud Data file format
VERSION 0.7
FIELDS x y z rgb
SIZE 4 4 4 4
TYPE F F F U
COUNT 1 1 1 1
WIDTH 635
HEIGHT 1
VIEWPOINT 0 0 0 1 0 0 0
POINTS 635
DATA ascii
0.73450899 -0.028551476 -0.61032307 16185331
0.73646295 -0.055770867 -0.61205822 12963031
0.73419726 0.017547708 -0.61119431 6987715
0.69634384 0.21231124 -0.56097656 12102561
0.68672514 0.32741812 -0.56332844 16185331
0.6839444 0.38136259 -0.56013328 12894137
0.71239352 -0.12339412 -0.56400847 9336730
0.71986574 -0.07223773 -0.5826081 9737396
0.69813776 0.19462447 -0.56105387 14600372
0.6882652 0.2809152 -0.56026214 14407897
0.68591511 0.41854376 -0.56375504 12170157
0.71497238 -0.27330747 -0.51463979 7435894
0.69218731 0.050681964 -0.50192571 5989220
0.72372371 -0.33885682 -0.55572993 9340033
0.69937211 -0.10760402 -0.50437427 6646119
0.69738352 -0.071994364 -0.5080654 6909548
0.69413066 -0.025309293 -0.51122797 7106155
0.69314164 0.018267447 -0.51501054 7236969
0.69010782 0.19821654 -0.54075748 9603716
0.681521 0.22968394 -0.52266079 8354161
0.67505926 0.27217624 -0.51901156 6053206
0.67024857 0.32934603 -0.51348555 6248526
0.67557931 0.36865288 -0.52547538 5395276
0.68073249 0.40053195 -0.54649901 5393218
0.71571106 -0.32379043 -0.5215528 7962493
0.6883027 0.02758857 -0.47708616 6120546
0.69017237 0.068884224 -0.46717513 6910574
0.68596405 0.12339061 -0.45879352 8093819
0.67136425 0.22702758 -0.47623986 6909545
0.66626954 0.27358425 -0.47610131 5002321
0.71293962 -0.27455708 -0.47957519 7765628
0.69764781 -0.16444781 -0.46223739 6251874
0.69530839 -0.1237501 -0.47242251 6317924
0.69243181 -0.072018482 -0.47981516 6317411
0.68850881 -0.026903246 -0.47638899 6054752
0.67500657 0.17919257 -0.46130422 8027512
0.66650403 0.32560781 -0.46976316 4738890
0.67347991 0.36564302 -0.47031897 3949376
0.66881204 0.43483937 -0.46071455 2829609
0.66828817 0.45665333 -0.46504673 4735551
0.71263802 -0.32615876 -0.47627744 8620678
0.66153741 0.27647406 -0.42491412 4804943
0.69854784 -0.26006925 -0.40608007 7371638
0.69663161 -0.22129431 -0.41792569 6515558
0.69154572 -0.1708957 -0.42738733 6120288
0.68723249 -0.12714536 -0.42694962 5923166
0.68488079 -0.074886568 -0.42532036 5857630
0.68159705 -0.025401339 -0.42635328 5660251
0.67841917 0.025831165 -0.42272916 5660509
0.68308336 0.071116179 -0.42554569 6713195
0.68085891 0.12774894 -0.42591685 7830390
0.67189801 0.17568152 -0.42253789 6975340
0.6672079 0.22251455 -0.42579067 5923166
0.66372371 0.32109979 -0.43174326 4344390
0.66703081 0.37217069 -0.418843 3224884
0.66190624 0.42342573 -0.4223659 2697509
0.66676587 0.46562853 -0.43014729 8483954
0.68822414 -0.22097792 -0.37485692 6450023
0.68216515 -0.17678414 -0.37372875 5792092
0.66551363 0.17737223 -0.37339053 6318180
0.66152465 0.22189496 -0.37657616 5660252
0.69446653 -0.27317557 -0.37456483 7174515
0.67797458 -0.12788482 -0.3751224 5528921
0.676597 -0.070418008 -0.37353802 5331542
0.6734429 -0.028695323 -0.37508467 5265493
0.66949189 0.029182622 -0.37764135 5199957
0.67445791 0.07767202 -0.37524232 6120801
0.67429465 0.12193489 -0.37596634 6910315
0.65877211 0.27441141 -0.37520003 4608335
0.66177696 0.32285959 -0.37326044 3884097
0.66232228 0.37752172 -0.37770465 2962226
0.65621358 0.42110464 -0.37631452 2631717
0.68943876 -0.27541828 -0.32447183 7108978
0.68399101 -0.22197999 -0.32360354 6516585
0.67710167 -0.17295006 -0.32318431 5792348
0.67329013 -0.12835655 -0.32282627 5397077
0.67176813 -0.075993456 -0.32324585 4936527
0.66887146 -0.022468308 -0.3231428 4607818
0.66662598 0.024086265 -0.32000107 4607561
0.66817838 0.07442905 -0.32479513 5134163
0.6657939 0.12748016 -0.32480302 6055264
0.65982819 0.17628825 -0.3273733 6252129
0.65546662 0.22308062 -0.32336238 5397337
0.65596431 0.27595356 -0.32563227 4871249
0.66027367 0.32141873 -0.32514012 4410697
0.66120088 0.37757885 -0.32557905 3357240
0.67597669 -0.17254543 -0.27506405 5923933
0.68438363 -0.27436504 -0.27631855 6911343
0.68149525 -0.22442754 -0.2761015 6713964
0.6730665 -0.12628873 -0.27807507 5397332
0.67112333 -0.075354598 -0.27806512 4804939
0.66879219 -0.025857262 -0.27574036 4410181
0.66669625 0.024936173 -0.2793622 4475717
0.66413355 0.074621037 -0.27274883 4673354
0.66029847 0.1287763 -0.27356267 5462870
0.65725803 0.17357302 -0.27431282 5923164
0.65483421 0.22194049 -0.27189711 5463386
0.6549623 0.27816027 -0.27574903 5726044
0.65778846 0.32391655 -0.27566075 5396822
0.65933019 0.37825581 -0.2703101 4014911
0.67505735 -0.17469269 -0.22538811 5923676
0.6650275 0.022655917 -0.22018597 4409924
0.6521551 0.27516744 -0.22578298 5528664
0.65278077 0.32560521 -0.22874662 5133392
0.65908939 0.42906857 -0.27409479 3619124
0.67772335 -0.27559346 -0.22504884 6977136
0.67676079 -0.22306341 -0.22446771 6779500
0.67314708 -0.12506376 -0.22543605 5397331
0.67051643 -0.074866638 -0.22559275 4870475
0.66726273 -0.022078428 -0.22243477 4409923
0.66200131 0.077134348 -0.22679232 4739403
0.65834117 0.12417226 -0.22797737 5331284
0.65492749 0.17551331 -0.22585914 6120801
0.65304738 0.22302145 -0.22605051 5397078
0.65354925 0.37740359 -0.22986005 4409667
0.65367424 0.42414013 -0.23334083 4145211
0.65867972 0.45549846 -0.28277907 3486509
0.65145338 0.4534505 -0.22967824 4341562
0.67319626 -0.17122473 -0.17626595 6055263
0.66408414 -0.020915531 -0.17608419 4672325
0.65164936 0.16987355 -0.17747663 6054750
0.66586214 0.47386083 -0.39199388 10260880
0.67613745 -0.27427948 -0.17454682 7107952
0.67478698 -0.225503 -0.17717363 6845292
0.70110869 0.20540053 -0.5745272 12764870
0.67168784 -0.12740701 -0.17631309 5725526
0.66806901 -0.074742027 -0.17611933 5067083
0.66177976 0.021735622 -0.17659849 4541252
0.65818 0.07717666 -0.17336051 4936268
0.6546067 0.1246293 -0.17166041 5659992
0.65055257 0.20822826 -0.19430897 5199442
0.70607239 0.17891762 -0.57942456 12567238
0.6591844 0.022487827 -0.12395217 4869446
0.67606992 -0.27583364 -0.1265614 6713196
0.67333376 -0.22563018 -0.12461265 6581610
0.66950524 -0.12657064 -0.12554425 5659478
0.66615462 -0.074547902 -0.12176842 5264205
0.66221517 -0.024291577 -0.12594531 4869190
0.6554867 0.076104686 -0.12565105 5067084
0.65219539 0.12567474 -0.12609024 5396562
0.65048736 0.1560345 -0.13148491 5659732
0.6575008 0.42632633 -0.32636508 2763560
0.65808362 0.45618647 -0.31538522 4077618
0.65089345 0.16363285 -0.065155193 5923424
0.67371935 -0.2737442 -0.073836394 6252389
0.66845316 -0.12927426 -0.0760388 5396565
0.65948129 0.025863335 -0.07534723 5199183
0.65582758 0.0750992 -0.072958969 5659736
0.65223223 0.12593049 -0.077170558 5923165
0.65034664 0.2259711 -0.051248565 5791583
0.65035558 0.26000893 -0.052741829 6252133
0.66254479 -0.026605802 -0.075953938 5264720
0.65956128 0.25613511 -0.021949535 2245211
0.70016944 -0.34912789 0.046795197 138542
0.77590746 -0.53042871 -0.60955608 14007477
0.77929336 -0.55403054 -0.55324137 6642777
0.76615584 -0.52913368 -0.55652034 7893357
0.7441439 -0.47635821 -0.55856329 9473671
0.7510525 -0.49618566 -0.55970591 9342086
0.72674531 -0.28092322 0.19628453 9476991
0.70374715 0.31713915 0.1974307 11185811
0.77560282 -0.55190653 -0.54647708 6578013
0.75812328 -0.52912658 -0.52770656 7499112
0.75052887 -0.4984456 -0.54763532 9144965
0.73973316 -0.47669816 -0.527789 9014149
0.70971727 0.21195808 0.18521403 7899519
0.70885479 0.28412032 0.19795564 10661267
0.73248881 -0.27565321 0.22304748 12630669
0.70424837 0.37202308 0.23719479 12038804
0.75158083 -0.53714073 -0.49767408 7762026
0.75088489 -0.27096599 0.29684326 12958863
0.75127298 -0.22830838 0.29545954 13025433
0.75105715 -0.17655694 0.29732928 13090972
0.75027949 -0.14383969 0.29926926 13156506
0.74470699 -0.27749038 0.27386826 13090448
0.74517286 -0.32464752 0.27411327 12958861
0.7576654 -0.27551225 0.32455966 13156243
0.76166552 -0.22608019 0.32981136 13090971
0.76081443 -0.17016891 0.32667613 13156765
0.69555032 -0.46545005 -0.22497179 8092791
0.75957239 -0.12632993 0.32741928 13090715
0.69067454 -0.42418891 -0.2222759 7830903
0.75696433 -0.077602826 0.33223572 12959387
0.75307953 -0.028453182 0.3401657 12959901
0.75061357 0.0097874487 0.34741223 13025696
0.75055766 0.084726177 0.34716555 12893856
0.75057501 0.11590221 0.34494534 12893595
0.64993215 0.24604066 -0.20092084 5068112
0.64969772 0.27890077 -0.20330396 5199441
0.68327093 -0.37319338 -0.22331251 7502196
0.69810414 0.44193348 0.309129 801623
0.71426195 0.42767632 0.37284198 6257018
0.64933622 0.32645541 -0.20424624 4936011
0.77049518 -0.22328508 0.37170544 13090716
0.77274823 -0.17587407 0.37757754 13024922
0.69160825 -0.46587524 -0.17530534 8026743
0.68622577 -0.42658958 -0.17626794 7830391
0.67895037 -0.32704008 -0.22494414 7305330
0.75531381 0.075128183 0.37363437 12761752
0.70647514 0.42170134 0.32638901 6650487
0.74777836 -0.50705391 -0.52046406 8683641
0.70662892 0.4606162 0.37810472 1525610
0.64920199 0.18765208 -0.16261825 5528408
0.76852071 -0.27228528 0.37522122 13221783
0.67834938 -0.37488103 -0.17815083 7699062
0.67593741 -0.32524067 -0.174863 7370611
0.76054007 -0.025513038 0.37434351 12892822
0.75612122 0.022147175 0.3741509 12827544
0.75351447 0.12720601 0.37572214 12630422
0.75087678 0.15510793 0.3860614 12366993
0.64745754 0.22785513 -0.17365818 5199699
0.64619488 0.27408397 -0.1754297 5067856
0.64587718 0.32675192 -0.17890655 4804425
0.64429951 0.37438023 -0.17410487 4540482
0.77239531 -0.12613581 0.37481955 13024921
0.68539006 -0.42644969 -0.12426855 7237742
0.67837858 -0.37581497 -0.12270086 7106669
0.77454561 -0.076114915 0.42540592 12563081
0.76909029 -0.022405354 0.42206848 12497031
0.76760685 0.019961957 0.42593184 12431497
0.76414222 0.079730168 0.42015895 12365962
0.64101064 0.27371791 -0.12482807 4541512
0.77781463 -0.26907918 0.4284732 13155992
0.77740186 -0.22598775 0.42249602 13024408
0.77904236 -0.17431718 0.42297202 12826769
0.77876943 -0.12646295 0.42512429 12629131
0.76051962 0.1220682 0.42295897 12234635
0.7544347 0.17484234 0.43089548 12235151
0.75189185 0.21842632 0.44279614 12235153
0.75067037 0.2754949 0.44725868 12170136
0.64363039 0.22745174 -0.12377384 4739149
0.64046013 0.32637495 -0.12347643 4277569
0.63923877 0.37516329 -0.12218042 4211006
0.67604548 -0.32266542 -0.1236658 6910061
0.64837241 0.17880273 -0.12262084 5002062
0.77745408 -0.32703063 0.42547971 13418647
0.78817981 -0.27013165 0.47343904 12760718
0.77708918 0.0223839 0.47759533 12365704
0.75371265 0.32554656 0.47527248 12367778
0.69589525 -0.42653567 -0.27684569 7371123
0.79117745 -0.32401046 0.47585273 13154959
0.77997154 -0.020699061 0.47823626 12365446
0.64050245 0.32308939 -0.087446086 4804172
0.638569 0.37788606 -0.091982007 4606279
0.78383827 -0.12435455 0.47380796 12365187
0.78168863 -0.078869343 0.47553438 12364930
0.77399611 0.076420739 0.47863683 12365706
0.67852348 0.12457661 0.12178668 1197410
0.63825738 0.41993442 -0.13158095 4538684
0.72215444 0.46341398 0.47393912 3300479
0.68067032 0.1750319 0.12367366 867933
0.68975329 -0.37463793 -0.27645668 7305331
0.77036232 0.12501498 0.47619757 12299914
0.76480192 0.17717451 0.47586387 12300687
0.75819266 0.22136322 0.47309053 12300947
0.7551254 0.27564442 0.47270378 12301722
0.75119781 0.35973087 0.48624843 12565156
0.73616546 0.42543575 0.47420821 6846840
0.6485517 0.1807366 -0.083265677 5068114
0.64541107 0.2265107 -0.077907994 4936530
0.78718185 -0.22762583 0.47496501 12628618
0.78573382 -0.17403241 0.47181863 12497287
0.6370514 0.42759934 -0.082575262 5197643
0.7255637 -0.47340715 0.22625193 1791093
0.77830839 0.071919732 0.5663178 10787447
0.6786707 -0.2252247 0.023229308 796214
0.73286027 0.32759354 0.37445253 12368029
0.74143416 -0.42646456 0.21894121 10067586
0.77743924 0.12482067 0.55870163 11905412
0.67428994 -0.17260522 0.026810637 665402
0.72549021 0.37280113 0.37434375 12301723
0.74007034 -0.3735584 0.22309293 12893070
0.77530348 0.17748114 0.55957627 11971207
0.6922372 0.22424397 0.55305827 3424849
0.67169535 -0.12589821 0.02636832 796473
0.7401858 0.23788713 0.55589145 2899272
0.73441309 -0.32302245 0.22317387 12761998
0.75735676 0.22998372 0.5570156 10591104
0.69715267 0.47479522 0.35726896 8160673
0.66993749 -0.075304128 0.024408469 598837
0.74883074 0.25229761 0.5533222 3359565
0.74802536 -0.4819479 0.41750732 2706026
0.75591081 0.27083626 0.5632664 8356468
0.72544891 -0.42491746 -0.52276433 9014664
0.75686169 -0.46585083 0.42892063 1856118
0.66878361 -0.023308692 0.020559559 730166
0.73061556 -0.22302219 0.22236389 12499344
0.76395172 0.32351935 0.57328928 10856085
0.7185933 -0.37426654 -0.52381915 8291200
0.77056599 -0.42594537 0.42633587 10987404
0.66803193 0.023203852 0.020706981 664887
0.72944021 -0.17448033 0.22402072 12499346
0.76145661 0.3770805 0.57802737 9606789
0.70194656 -0.50233787 -0.32176244 8092020
0.7775262 -0.3756285 0.42646542 13484185
0.66563672 0.075572997 0.024797978 599867
0.74913406 0.4468495 0.55267262 731198
0.69923115 -0.46037495 -0.31641424 7436657
0.72632372 -0.12509142 0.22320704 12433811
0.75843781 0.42391124 0.5753749 5201760
0.70106578 -0.47992903 -0.32667065 8026480
0.79620647 -0.50224555 0.63638175 11841752
0.66219509 0.12511685 0.018428629 1455435
0.74504077 0.47181007 0.57045907 3369095
0.696006 -0.42450786 -0.32271057 7436915
0.72351485 -0.075352669 0.22120506 12499091
0.75387365 0.4612332 0.5855698 1395307
0.71342862 -0.22555771 -0.518076 6974571
0.78612441 -0.47735688 0.62179232 5463931
0.66009176 0.17390113 0.017036868 1522001
0.69240302 -0.37475684 -0.32315388 7239795
0.72376049 -0.024452845 0.22051401 12302484
0.64262831 0.42402798 -0.17120177 4539198
0.7080428 -0.1785323 -0.51656199 6909033
0.78335202 -0.42511779 0.61615413 1583673
0.65979719 0.22282295 0.02416846 1061709
0.6914283 -0.32482299 -0.32584015 7240050
0.72417766 0.022539442 0.22255637 12368020
0.64383626 0.46092016 -0.1888779 10458513
0.70325291 -0.12443122 -0.51911503 7500140
0.7912218 -0.37411943 0.61555225 1254706
0.65803087 0.26674193 0.037955392 139835
0.69057649 -0.46745655 -0.12452405 8024941
0.7222451 0.07538078 0.21965201 12498835
0.70306712 -0.077489674 -0.53099316 8093306
0.79771525 -0.3181451 0.62510979 1189688
0.800771 -0.31050095 0.60658467 3030852
0.72159827 0.12537904 0.22309278 12630420
0.70229894 -0.041998871 -0.53716362 9142130
0.79782641 -0.27517554 0.62416732 1254968
0.67073083 0.38715243 0.04481462 203568
0.80067939 -0.2811327 0.6059413 3095873
0.71982318 0.17626876 0.22461408 12696472
0.70042086 0.024992973 -0.5464161 11767157
0.79505742 -0.22416142 0.6256094 1583416
0.67070436 0.41271451 0.045199335 137516
0.80016524 -0.24990197 0.60083109 729907
0.71784729 0.22273847 0.22558564 12499609
0.79206479 -0.17491783 0.6241225 1912378
0.65744644 0.46803382 0.028891455 795194
0.69526106 -0.47337574 0.070790268 928320
0.71402323 0.2742627 0.22261371 12039835
0.7005316 -0.45573065 0.096967645 401974
0.78908372 -0.12559815 0.61837626 2241083
0.69843769 0.34424022 0.20374371 11185554
0.69879931 -0.43989816 0.065055586 600900
0.70875019 0.32375491 0.22227061 12104856
0.70198363 -0.41925129 0.079928063 335405
0.78343272 -0.07576213 0.61653161 2108983
0.69341511 0.38112524 0.21470453 11447952
0.67099512 -0.17127176 -0.12970416 5988958
0.74819547 0.18961248 0.41129366 12235409
0.70294338 -0.37692085 0.074180759 335921
0.77750957 -0.024096079 0.614232 1254447
0.68370253 0.42484689 0.22411388 4745586
0.69648468 -0.32393843 0.07661403 270130
0.74558121 0.22555409 0.41919366 12301461
0.70047736 -0.34671158 0.07925649 335663
0.77408713 0.023317926 0.61470622 859949
0.67319429 0.46055049 0.22638316 2050155
0.68838292 -0.27631545 0.065551497 205366
0.74504519 0.27297512 0.42277184 12235930
0.73269963 -0.46809426 0.27381551 3180467
0.77351803 0.05432266 0.60841238 663341
0.68249118 -0.22031374 0.072394475 206139
0.74489087 0.32922015 0.42583266 12235933
0.74527848 -0.42535275 0.2758323 10398353
0.75047821 0.3141748 0.44747972 12038813
0.67803681 -0.17481408 0.074183576 206656
0.73854959 0.37270808 0.42515254 12301725
0.74672025 -0.37417918 0.27563992 12958605
0.74719709 -0.52880126 -0.49376968 7499625
0.67457014 -0.12447949 0.073832847 206398
0.72641343 0.42673686 0.42622957 6979196
0.74735969 -0.50130981 0.45921087 12953799
0.72553253 -0.46902189 -0.47406441 8160123
0.75027144 -0.30386621 0.29930577 13090447
0.67239749 -0.076568745 0.07453604 205883
0.71464175 0.46158779 0.42591214 1986931
0.7490586 -0.49429035 0.45762023 11835833
0.76996183 0.28222305 0.61935514 730169
0.71707499 -0.42347538 -0.47763956 9278348
0.76114297 -0.46800518 0.47242418 2445167
0.67039067 -0.02440794 0.076509394 206140
0.74335623 -0.22626087 0.2709302 13090968
0.76730287 0.32539985 0.61917579 861497
0.71257097 -0.37496072 -0.47522852 9147534
0.77871108 -0.42519373 0.47334519 10658441
0.66970348 0.022084562 0.075012691 206398
0.74162275 -0.17235628 0.27009991 12959640
0.76309675 0.37438264 0.6151787 927546
0.70041347 -0.50161535 -0.27064151 14588017
0.78939182 -0.37618694 0.47339514 13352600
0.66808265 0.07479196 0.07101319 272707
0.69905251 -0.46678668 -0.27390969 8224115
0.73943621 -0.12362183 0.272605 13025178
0.77006137 0.4272286 0.62904012 666434
0.70026851 -0.48756 -0.28277051 10978929
0.79942149 -0.50322658 0.65078479 12497884
0.66627789 0.12477288 0.075406231 339532
0.74848282 0.49283656 0.61252832 10017503
0.80153096 -0.50423068 0.66537124 8293036
0.73698258 -0.075609982 0.27603635 12893592
0.76371294 0.47201806 0.62646657 3432574
0.70789415 -0.22026357 -0.47285312 6777961
0.79723477 -0.47632268 0.66840774 6589103
0.66537517 0.17804462 0.08081799 406355
0.74738252 0.50161809 0.62308806 11140346
0.80050349 -0.49702248 0.67271173 7047852
0.73552293 -0.026838396 0.27752787 12828056
0.75636929 0.50270206 0.64770919 8550291
0.70369732 -0.18160082 -0.48282468 6580583
0.79644829 -0.43435648 0.67209136 6912410
0.65973061 0.21918686 0.069667235 274770
0.68538505 -0.32493529 -0.27480912 7042673
0.73409826 0.026428163 0.27715266 12762264
0.70078731 -0.14103018 -0.49579558 6646375
0.79609919 -0.37254968 0.67153358 6849443
0.65414631 0.2579858 0.053802345 139322
0.69066358 -0.46845409 -0.076212645 7630696
0.73462874 0.072265342 0.27711418 12827801
0.79372859 -0.32206321 0.66728455 5993876
0.68682432 -0.42238241 -0.074686192 7896444
0.73430139 0.12759262 0.2755748 12696472
0.78860891 -0.2740998 0.66599643 5864603
0.67154992 0.39006341 0.062998988 403265
0.68238318 -0.37701643 -0.07411208 8817289
0.73040485 0.17334042 0.27554747 12630421
0.78151315 -0.22483437 0.66787344 6532827
0.67149538 0.41607985 0.075407229 536396
0.67659754 -0.32403603 -0.070849806 8489351
0.72538483 0.223432 0.27785906 12433045
0.70276588 -0.50145245 0.12816255 1124678
0.77990681 -0.17609748 0.66631222 6398928
0.66289502 0.46440873 0.074787706 600389
0.69949073 -0.48202622 0.10175223 1582395
0.72102964 0.27331522 0.27540904 12105112
0.7053622 -0.4708674 0.12369991 599870
0.77967912 -0.12813346 0.66482687 6460604
0.67159736 -0.22602853 -0.074291542 6121315
0.71737945 0.32541928 0.27704507 12170648
0.70821935 -0.42447612 0.12230829 338239
0.77737927 -0.076051071 0.66385835 6522019
0.66943991 -0.17073797 -0.071596041 5726045
0.70934737 0.37699002 0.27373606 12038804
0.70580387 -0.37152424 0.12753654 800334
0.77465028 -0.020239389 0.66405863 6777476
0.69459563 0.43065915 0.27193853 2771546
0.69851065 -0.33339149 0.10816126 337983
0.70278943 0.40976661 0.28211549 9936776
0.7024802 -0.34493923 0.12322038 734284
0.77210188 0.029200312 0.66614211 5270422
0.68379676 0.46425995 0.27171093 2772848
0.66555345 -0.071477965 -0.077180371 5527635
0.73969263 -0.46841681 0.32342049 3111075
0.76860267 0.078935258 0.66865337 5140380
0.75042504 -0.4514932 0.34718403 2917555
0.68230003 -0.20292379 0.10358085 405836
0.74951965 0.34461266 0.4536269 12367779
0.74834806 -0.43508074 0.31173369 8692378
0.7660073 0.12503482 0.67067701 4878489
0.75302035 -0.42274779 0.3306807 11579534
0.67971474 -0.16699207 0.11025874 471373
0.74632448 0.37964848 0.47128943 12499362
0.74975884 -0.36906785 0.30239493 13155986
0.76097971 0.17711551 0.67529613 5343414
0.75355619 -0.37335873 0.32604957 13352853
0.67825758 -0.12703626 0.11228446 405580
0.74630272 0.23169018 0.68172967 6460347
0.74963731 -0.33721879 0.30180717 13090447
0.75609839 0.21978882 0.67522413 5868984
0.71533132 -0.46947834 -0.42651704 7764853
0.75483775 -0.32519922 0.32764202 13221779
0.67748028 -0.076996222 0.11474101 339529
0.73813367 0.28622586 0.67774326 7052223
0.7533161 0.2772834 0.66965634 6258344
0.71006948 -0.42491257 -0.4259471 8028282
0.76874328 -0.46441668 0.52632475 2577268
0.6751197 -0.021724567 0.11457612 406096
0.74087584 0.30841097 0.6752817 8308186
0.75261748 0.31035307 0.66653055 8502482
0.70994091 -0.37468928 -0.42612565 8160381
0.78440857 -0.42636579 0.52854496 8948084
0.67576778 0.021267161 0.11517344 538708
0.64236277 0.27305254 -0.08169581 4936272
0.71002811 -0.32596955 -0.42659727 7832188
0.7973296 -0.38501146 0.52258736 12693634
0.68125427 0.075884476 0.12656577 1066337
0.8025986 -0.36286777 0.53099871 12561790
0.74903411 -0.11184629 0.30238923 13090972
0.78879315 0.43595263 0.6580869 1065052
0.70543933 -0.27690205 -0.42625216 7634810
0.79935169 -0.32112184 0.50342846 12627838
0.80849808 0.44163057 0.66882867 1394791
0.80437917 -0.32732043 0.52964789 12495995
0.74711239 -0.068994194 0.30784178 12959386
0.78694934 0.46275565 0.65689045 2773618
0.70267075 -0.22761667 -0.43952602 6778217
0.79745954 -0.26805046 0.5103718 12299653
0.80753785 0.45342216 0.66855019 1789036
0.8022911 -0.27952933 0.532839 12234115
0.74575287 -0.020512611 0.31735978 12893851
0.76572502 0.50521547 0.66641474 9940159
0.70025527 -0.19775622 -0.44900757 6515046
0.79583526 -0.22339836 0.52440917 12299393
0.67137349 0.20438536 0.10955225 343649
0.80043316 -0.24438827 0.54440975 12233857
0.74446315 0.02378878 0.32377619 12959646
0.63994354 0.45569551 -0.061532713 6183253
0.72776818 0.062400084 -0.60499352 5015473
0.79204208 -0.17580993 0.52521992 12233600
0.69150782 -0.47348264 -0.026320903 8880764
0.74563366 0.07339599 0.32582951 12959646
0.72110718 0.13058683 -0.60190594 4163504
0.78967857 -0.12299891 0.52668834 12233342
0.69322836 -0.41729727 -0.024923727 9084584
0.74583131 0.12615138 0.32259917 12893595
0.78840226 -0.07758408 0.52738434 12299137
0.66050994 0.38788241 0.1350624 1334921
0.69411618 -0.38230157 -0.019923851 7109503
0.74008995 0.17616987 0.32590693 12630422
0.785779 -0.022579724 0.52275056 12299909
0.66477656 0.42403919 0.12636307 1069434
0.6838122 -0.32541913 -0.023957085 7175296
0.73116571 0.22701399 0.32174352 12367251
0.70773089 -0.50366604 0.17938443 1255489
0.78206593 0.023702115 0.52338797 12365446
0.66429579 0.45967081 0.12384571 1063262
0.67708606 -0.27352583 -0.024048796 5266526
0.72777969 0.27283189 0.32291421 12104854
0.7179215 -0.47375903 0.17589146 734287
0.77834201 0.077830665 0.52530867 12431239
0.67427862 -0.22426125 -0.020990849 4872540
0.72433579 0.32469699 0.3234598 12104598
0.73342371 -0.4225173 0.18188967 4220015
0.77686608 0.12510717 0.52614552 12299912
0.67124194 -0.17502022 -0.025126617 4938333
0.7163111 0.37584224 0.32655615 12170392
0.64708662 0.21669488 0.52894545 861496
0.72322357 -0.37106761 0.17462701 7112061
0.77256459 0.17261051 0.52362847 12300429
0.68399203 0.22018465 0.54011297 5530203
0.66943502 -0.12455086 -0.023450095 5003868
0.74521816 0.23956996 0.54893029 2570565
0.72350419 -0.3317039 0.188807 8754305
0.75724334 0.23115842 0.533023 11511948
0.69413066 0.46435842 0.32288015 2640235
0.6674428 -0.074761756 -0.024678469 4214353
0.7014159 0.454703 0.34347221 1001063
0.74423939 -0.4749397 0.37178981 2183797
0.75527656 0.26899096 0.5334807 11907222
0.73285431 -0.43119398 -0.55492246 9669766
0.75304264 -0.45873803 0.38141632 1992853
0.66588634 -0.02556777 -0.020894514 4345681
0.72565591 -0.21961568 0.1957792 9871494
0.75847101 0.32523671 0.52485299 12696742
0.72639269 -0.36922696 -0.55557907 8749952
0.76059073 -0.42628953 0.37386531 10659469
0.66398501 0.023998532 -0.020976024 4477267
0.7488963 0.39136505 0.50716907 12631204
0.72315395 -0.17535441 0.195821 9543048
0.75459099 0.37175298 0.52606881 12762534
0.7047556 -0.50312722 -0.35154328 8811891
0.76449019 -0.37616712 0.3749603 13484441
0.66036439 0.075056121 -0.022246255 5135456
0.74451864 0.43000829 0.52088445 6649461
0.69995105 -0.45033878 -0.35245126 7568505
0.71989554 -0.12764537 0.19656365 10265994
0.75211543 0.41438121 0.54065359 11185304
0.70501113 -0.46650875 -0.37411571 7633524
0.76485932 -0.32589343 0.37264198 13418904
0.65746212 0.12546663 -0.018795202 5399659
0.7357837 0.46240792 0.52589428 1724273
0.69847715 -0.42154366 -0.36079049 7502452
0.71712697 -0.074364699 0.19637769 11580304
0.64901817 0.37452272 -0.20476028 4606532
0.70282871 -0.42913568 -0.38359278 7568245
0.77479243 -0.46924356 0.57473499 3695494
0.65590912 0.17448273 -0.018011542 5070696
0.69752496 -0.37392682 -0.36131126 7437172
0.71824902 -0.033815425 0.1970211 11383183
0.64857852 0.43035838 -0.20899349 4473661
0.70322806 -0.37277779 -0.3865608 7634295
0.78393984 -0.42371383 0.57188416 4412244
0.65734434 0.22583811 -0.019145681 4150884
0.69711334 -0.32233199 -0.36218256 7568758
0.71912557 0.032810353 0.19804418 11252628
0.64749509 0.46059024 -0.21156842 7893872
0.70294529 -0.32774094 -0.38652912 7765880
0.79475093 -0.380997 0.57764471 7828571
0.69632816 0.083830617 0.15591748 1792116
0.80200952 -0.36024207 0.56411177 12101238
0.71053284 0.083086126 0.18452886 7441544
0.70084387 -0.29206666 -0.39518595 7437430
0.79904801 -0.34559694 0.59680635 3950917
0.69586563 0.10419502 0.15565489 2319490
0.80460459 -0.32481354 0.57116389 11181425
0.7137391 0.11599943 0.19403206 10462344
0.72450453 -0.029171549 -0.59415561 16512233
0.76728368 -0.071867749 0.37374765 12958873
0.69692129 0.17907988 0.15414077 1328741
0.80304867 -0.27474123 0.57781416 11181945
0.71118003 0.17948708 0.18884894 9871496
0.6429345 0.44813991 -0.046210226 6249816
0.71676809 0.032001413 -0.58419979 10919852
0.79867053 -0.21808475 0.57429922 11247480
0.69773793 0.20401795 0.15729995 1130849
0.80066264 -0.24051285 0.57382214 11707773
0.74988872 0.045294877 0.35036144 13353372
0.64664292 0.46433935 -0.030414008 5462880
0.71581692 0.074021988 -0.58696723 5732246
0.79493219 -0.17156971 0.57690924 10326896
0.65118241 0.46844539 -0.0082697906 2439767
0.69200855 -0.47367501 0.02750585 2703441
0.74995172 0.052055299 0.35030526 13287579
0.71555507 0.12675014 -0.59138161 5865891
0.79271036 -0.12796178 0.57616544 10392433
0.69425237 0.34114447 0.19476679 10857875
0.69789362 -0.42618141 0.019669682 1455952
0.74951494 0.14595015 0.3546446 12827801
0.70161897 -0.40909404 0.033674695 402747
0.78908288 -0.074077487 0.57434511 10392175
0.67033631 0.37976095 0.17104636 5798528
0.69834286 -0.36830121 0.0083037801 1650491
0.74608535 0.17464611 0.37263483 12564629
0.70215166 -0.3809576 0.029550545 335406
0.78422272 -0.024816211 0.57560652 10195310
0.66664511 0.42599195 0.17560516 1462386
0.69230956 -0.32694563 0.021219455 1124664
0.73777342 0.2251298 0.37530449 12696216
0.71418756 -0.50306696 0.2323934 2175824
0.78002161 0.025893955 0.57627618 9801070
0.6647566 0.4566673 0.17551318 1654372
0.6833666 -0.27421755 0.021220276 796213
0.73551762 0.27347809 0.37688342 12433565
