# .PCD v0.7 - Point Cloud Data file format
VERSION 0.7
FIELDS x y z rgb
SIZE 4 4 4 4
TYPE F F F U
COUNT 1 1 1 1
WIDTH 1052
HEIGHT 1
VIEWPOINT 0 0 0 1 0 0 0
POINTS 1052
DATA ascii
0.67111671 -0.10586931 -0.18708421 4283717970
0.67089951 -0.1066615 -0.18146423 4283783249
0.67009562 -0.090912789 -0.18901631 4282993222
0.67044967 -0.095076986 -0.18502903 4283322698
0.67044592 -0.095954031 -0.18308613 4284046934
0.67001498 -0.089793295 -0.18882638 4282993220
0.66925585 -0.08456666 -0.18274938 4283059526
0.66972286 -0.085796297 -0.18573636 4283850070
0.66818893 -0.07460168 -0.18428962 4282927684
0.66837502 -0.075331599 -0.18547964 4283652691
0.6669361 -0.065186597 -0.18579938 4282862661
0.66683084 -0.06269519 -0.1852029 4283125833
0.66588038 -0.050594542 -0.18533204 4283192140
0.66607487 -0.053559717 -0.18621919 4282598719
0.66494679 -0.036915228 -0.1827125 4283323983
0.66536033 -0.041769508 -0.18492945 4282862918
0.6661045 -0.045112226 -0.18925226 4282467389
0.66479534 -0.030739812 -0.18228561 4283324240
0.66500652 -0.030978421 -0.18648945 4282599489
0.66400295 -0.020866519 -0.18236054 4283388749
0.66420269 -0.021099553 -0.18634267 4282730819
0.66438931 -0.01705648 -0.18957926 4282336062
0.66322672 -0.011906953 -0.1831418 4283454798
0.66351932 -0.013394136 -0.18597521 4282993734
0.66356337 -0.011091002 -0.18814428 4282204475
0.66266459 -0.0040889797 -0.1848027 4283258446
0.66341525 -0.0070883743 -0.18860686 4283323724
0.66327578 -0.0049462421 -0.18699901 4282204474
0.6640861 -0.004125962 -0.19253458 4282138939
0.66260868 0.003017091 -0.18628526 4283257934
0.6634385 0.003728132 -0.18742296 4282073402
0.66419184 0.0021043746 -0.19297428 4282073658
0.66284496 0.012489385 -0.1865101 4283323728
0.6629383 0.015888812 -0.18390292 4282007865
0.66318667 0.012465489 -0.18746847 4282007865
0.66282165 0.021859137 -0.18674734 4283257934
0.66309589 0.021435553 -0.18625373 4282007609
0.66331208 0.018631477 -0.18905348 4281942074
0.66205174 0.029704999 -0.18413056 4283192655
0.66225713 0.032632321 -0.18714184 4282468160
0.66129148 0.042361524 -0.1837624 4283323984
0.66162407 0.042310473 -0.18745217 4282468417
0.66066843 0.053771649 -0.18388969 4283520847
0.6609267 0.054490581 -0.188299 4282600003
0.659756 0.066595681 -0.18361881 4283849042
0.66042304 0.065249629 -0.18839782 4282665796
0.65939814 0.076419987 -0.18575406 4283915609
0.6598022 0.07522697 -0.18780884 4282468675
0.65915543 0.086361013 -0.18689759 4284112988
0.65954632 0.084604144 -0.18759921 4282271552
0.65816522 0.096305355 -0.18658185 4284376160
0.65846843 0.095598049 -0.1873022 4282402881
0.65723771 0.10624866 -0.18599568 4284376160
0.65755659 0.10344843 -0.18620183 4282534468
0.65668362 0.11313769 -0.18585971 4283850071
0.65660691 0.11177269 -0.18164672 4282600261
0.6560725 0.12284666 -0.18470469 4283718998
0.65468508 0.13770959 -0.18405117 4285033831
0.65514296 0.13281626 -0.18411231 4284047194
0.65393209 0.14259419 -0.17975177 4285099622
0.65397376 0.14591406 -0.18384139 4284047451
0.65349835 0.15447979 -0.18287542 4284179295
0.65285832 0.16316848 -0.18345129 4284244574
0.65287 0.16444291 -0.18699208 4285100396
0.65181875 0.17323947 -0.18777803 4283784792
0.65204221 0.17062825 -0.18389659 4284310623
0.65073055 0.18172358 -0.18143088 4285428335
0.6512779 0.18041174 -0.18799531 4284114015
0.65007997 0.19257866 -0.18666463 4283521366
0.6490413 0.20416752 -0.18441287 4283455827
0.64974391 0.20122826 -0.1902121 4283455827
0.64869958 0.21218976 -0.18706879 4283390034
0.64808142 0.22250853 -0.18633451 4283586645
0.64721102 0.23482554 -0.18766324 4283521109
0.64682245 0.24346818 -0.18698823 4283521109
0.64705032 0.25537765 -0.18459684 4283587156
0.64764184 0.26600689 -0.18625437 4283587412
0.64795321 0.27399307 -0.18646486 4283586900
0.64780593 0.2833254 -0.18529262 4283586643
0.64760119 0.29379117 -0.18661922 4283455313
0.64732683 0.3040652 -0.18655483 4283389521
0.64708346 0.31635055 -0.18588533 4283454799
0.64702249 0.32716396 -0.18547848 4283191884
0.64683646 0.3363722 -0.18566452 4282994760
0.64634508 0.34580162 -0.18599109 4282928967
0.64558411 0.35382053 -0.18564825 4282797125
0.64577001 0.3576977 -0.18855548 4282796868
0.64478624 0.36495459 -0.18532133 4282927685
0.64548624 0.36165601 -0.1885266 4282927941
0.64453661 0.3743583 -0.18530534 4282927684
0.64487839 0.3860119 -0.18546717 4282861892
0.64543462 0.39589962 -0.18353853 4282796099
0.64526248 0.40544745 -0.18405986 4282796098
0.64401942 0.42160401 -0.18148121 4282729791
0.64435428 0.41618553 -0.18242064 4282730048
0.6439383 0.42661986 -0.18199287 4282861120
0.64439011 0.4258672 -0.18488407 4282729792
0.64381129 0.4364793 -0.18178314 4282860605
0.64380884 0.4356091 -0.18257302 4282860605
0.64372921 0.4442271 -0.18351908 4282925371
0.64385062 0.44200867 -0.18597342 4282860093
0.64400506 0.45016891 -0.18636763 4283318072
0.64454597 0.45427436 -0.19158095 4284234547
0.64412105 0.45449421 -0.18613429 4288822321
0.64472455 0.4580926 -0.1903085 4292692027
0.64449638 0.46396503 -0.18748708 4293750110
0.64544451 0.46334794 -0.19284721 4294396217
0.64496785 0.46633738 -0.19134142 4293712341
0.645625 0.46630561 -0.19455691 4292849065
0.69271737 -0.49074486 -0.1716678 4293694842
0.69279718 -0.48811629 -0.16986406 4294747253
0.69247121 -0.48300356 -0.17032689 4293237372
0.69195473 -0.47648439 -0.17285106 4286544244
0.69172072 -0.47159147 -0.17320257 4286019447
0.69131345 -0.46401492 -0.17312786 4286151291
0.69075388 -0.4542132 -0.17411347 4286151546
0.68944156 -0.44441456 -0.17054608 4286217079
0.69000936 -0.44639674 -0.1759064 4286151800
0.68741989 -0.43325508 -0.17342791 4286086777
0.68793339 -0.43515486 -0.1772735 4286086522
0.68582487 -0.42475528 -0.17680945 4286020983
0.68692881 -0.43044904 -0.17648333 4286020727
0.68410259 -0.41737777 -0.17432994 4285955192
0.68198556 -0.40576395 -0.17857517 4286021241
0.68220693 -0.4079994 -0.17324567 4286020472
0.6787082 -0.38998628 -0.17846192 4285955447
0.67992669 -0.39574546 -0.17548545 4286020728
0.68087119 -0.40169737 -0.17114247 4285889654
0.67761391 -0.38387194 -0.17985187 4286086005
0.67809677 -0.3854124 -0.1742982 4286020728
0.67609692 -0.37432423 -0.17891237 4286020726
0.67637998 -0.37458339 -0.1748295 4285889142
0.67550707 -0.36650938 -0.17992079 4286020216
0.67535222 -0.36650234 -0.17513546 4286019705
0.67466867 -0.35733175 -0.18111672 4285757815
0.67477328 -0.35583609 -0.17496394 4285888629
0.67451084 -0.34993586 -0.1823754 4285692788
0.67441517 -0.34707826 -0.17728993 4285758069
0.67477226 -0.33721828 -0.17783724 4285626485
0.6756742 -0.32596877 -0.17620619 4285691763
0.67610276 -0.31347483 -0.17453049 4285560691
0.67615664 -0.30226952 -0.1743972 4285364339
0.67630184 -0.29365069 -0.17434007 4285429618
0.67601073 -0.28209046 -0.175081 4285495153
0.67633116 -0.27308294 -0.17542364 4285429360
0.67581201 -0.26424801 -0.17571445 4285298031
0.6754964 -0.266215 -0.18041012 4285363823
0.67549962 -0.25489232 -0.17555545 4285232494
0.67516673 -0.24595039 -0.17578797 4285167214
0.67484653 -0.23671648 -0.17933293 4284970348
0.67464042 -0.23631057 -0.17366619 4285035627
0.67451614 -0.22537142 -0.18223342 4285232494
0.67432076 -0.22341929 -0.176569 4284772199
0.67386973 -0.21109574 -0.17733938 4285035372
0.6734885 -0.20127398 -0.17885546 4284969580
0.67337233 -0.1918215 -0.17810331 4284969324
0.67351139 -0.18383186 -0.18007739 4283784791
0.67353928 -0.18069707 -0.17724785 4284442466
0.67366409 -0.17698944 -0.17562896 4283784024
0.67344767 -0.16736194 -0.17677104 4284904042
0.67347491 -0.17147888 -0.17338444 4284706407
0.67363656 -0.17097645 -0.17635746 4283915095
0.67335004 -0.16140041 -0.17560275 4284837992
0.67342389 -0.16135789 -0.17346904 4283718488
0.67352539 -0.16249739 -0.17867874 4283915095
0.67301601 -0.15512186 -0.17552806 4284771945
0.67329901 -0.1543591 -0.17389371 4283717973
0.67332768 -0.15649636 -0.17880364 4283849044
0.6727047 -0.14651474 -0.17481494 4284705894
0.6727888 -0.14681073 -0.17517187 4283849043
0.67187041 -0.13628457 -0.17454724 4284442210
0.67226911 -0.13778052 -0.17737634 4283782994
0.67116302 -0.12689352 -0.17599936 4284508002
0.6713143 -0.12635638 -0.17573535 4283651407
0.67070073 -0.11768583 -0.17673059 4284376672
0.67092437 -0.11695728 -0.17702697 4283585614
0.67024893 -0.10579305 -0.17527817 4284179549
0.67061263 -0.10623634 -0.17644337 4283519564
0.66987664 -0.097659126 -0.17329378 4284047706
0.66995358 -0.09497083 -0.17720608 4283520075
0.66872633 -0.085777096 -0.17374028 4283454798
0.6688118 -0.084385544 -0.17637314 4283388492
0.66809762 -0.078492247 -0.17724618 4282993991
0.66768414 -0.075342491 -0.17425364 4283322956
0.66577959 -0.06092415 -0.1718991 4283586899
0.66642684 -0.064739555 -0.17470025 4283125320
0.66521126 -0.051445108 -0.17518075 4283455056
0.6651839 -0.054024745 -0.17330472 4282729791
0.66447777 -0.037110429 -0.17533034 4283520593
0.6649394 -0.042245187 -0.17542218 4282927942
0.66523278 -0.046850733 -0.17362657 4282729791
0.66403288 -0.0297121 -0.17470831 4283389264
0.66449177 -0.030559603 -0.17583904 4282401340
0.66363043 -0.021057514 -0.1757233 4283388748
0.66383368 -0.021330068 -0.17612761 4282401083
0.66304654 -0.013547044 -0.17632379 4283389005
0.66338664 -0.01418911 -0.17563491 4282401082
0.66172969 -0.00222985 -0.17402087 4283585355
0.66212213 -0.0043140119 -0.17750977 4283454541
0.6627807 -0.0062528765 -0.17615466 4282204474
0.66295922 -0.003530842 -0.18044707 4282204474
0.66149729 0.0036970852 -0.17279729 4283520077
0.66187918 0.003087722 -0.17708611 4283454541
0.66219956 0.003689168 -0.17512952 4282138425
0.66257119 0.0033131761 -0.18075475 4282204217
0.6611805 0.01338935 -0.17204513 4283520075
0.66196555 0.011974597 -0.17747192 4283520077
0.66238081 0.012175766 -0.17764089 4282269755
0.662673 0.0091008646 -0.18145874 4282204476
0.66102386 0.02181101 -0.17252776 4283520590
0.66131175 0.022385491 -0.17543568 4283191627
0.66231036 0.021022342 -0.17908396 4282072889
0.66076833 0.032490302 -0.17508091 4283125834
0.66146809 0.031435624 -0.17930247 4282073145
0.65994513 0.042123985 -0.17626441 4283454543
0.66062874 0.042594999 -0.17907383 4282007866
0.6597752 0.053451378 -0.17748497 4283652177
0.66022438 0.053828787 -0.1788612 4282073659
0.65925997 0.065276161 -0.17761703 4283652434
0.65939623 0.065955169 -0.17744443 4282204988
0.65750623 0.080055445 -0.17122592 4283915348
0.65826523 0.076321013 -0.17608728 4283784279
0.65864295 0.076175593 -0.17773677 4282271039
0.65752441 0.086225525 -0.17560124 4284112729
0.65799183 0.086105436 -0.17757846 4282271296
0.65704578 0.096242301 -0.17775841 4284310108
0.65737653 0.095073722 -0.17714071 4282402882
0.65627617 0.10654058 -0.17685223 4284507230
0.6564731 0.10659228 -0.1769156 4282468676
0.65619993 0.11082222 -0.17970385 4284574046
0.6557827 0.11461474 -0.17628461 4284442208
0.65587306 0.11346453 -0.17585368 4282600517
0.65392739 0.12782267 -0.16997409 4284836713
0.65485823 0.12341575 -0.17423701 4283916123
0.65552777 0.11921092 -0.17556408 4282666310
0.65362728 0.13526158 -0.17141277 4284771433
0.6540519 0.13274357 -0.1744163 4283257681
0.65320837 0.1448777 -0.17310038 4284837480
0.6533767 0.14482328 -0.17456806 4283126351
0.65281498 0.15022135 -0.17126364 4284903016
0.65281367 0.1546763 -0.17518368 4283981660
0.65179014 0.16595833 -0.17066762 4285165680
0.65234429 0.16326132 -0.17601131 4284310625
0.65118843 0.17305562 -0.17400083 4285232496
0.65169972 0.16933751 -0.17615134 4284179296
0.65075839 0.17855364 -0.17607309 4285297777
0.65071315 0.18125744 -0.17623296 4283455573
0.64915055 0.19424856 -0.17438418 4283586646
0.64974457 0.1910338 -0.1781591 4283521109
0.64876825 0.20200738 -0.1777592 4283652438
0.64791483 0.21236768 -0.17860417 4283586902
0.64693224 0.2240102 -0.17686078 4283586902
0.64651793 0.23560153 -0.17761053 4283587159
0.64654183 0.23306499 -0.17545083 4283652437
0.64674211 0.24047939 -0.18001008 4283652952
0.64648968 0.24404326 -0.17470919 4283521623
0.64666325 0.25368527 -0.17748427 4283456087
0.64640033 0.2573545 -0.17283738 4283389781
0.64697301 0.2666721 -0.17786308 4283455573
0.64654773 0.26261833 -0.17435777 4283389780
0.64676583 0.27290732 -0.17438287 4283389779
0.64699972 0.28360274 -0.1755885 4283389266
0.64670068 0.29411983 -0.17589396 4283323472
0.64616954 0.30377066 -0.17628938 4283323213
0.64575624 0.3186402 -0.17729875 4283191883
0.64556342 0.32767597 -0.1770577 4282994505
0.64555234 0.33005038 -0.17742307 4282863432
0.64541978 0.33638388 -0.1775637 4282994249
0.64495975 0.3454051 -0.17801461 4282928200
0.64433914 0.35519031 -0.1787058 4282862405
0.64401567 0.35775438 -0.17700759 4282862405
0.64372975 0.36588407 -0.1771311 4282862149
0.64373225 0.37493265 -0.17504703 4282796099
0.64429218 0.386686 -0.17426875 4282730562
0.64331573 0.40010437 -0.16823325 4282664257
0.64416987 0.39736536 -0.17270961 4282795841
0.64280748 0.40689623 -0.16771524 4282730047
0.64352268 0.40679914 -0.17216612 4282730049
0.64258522 0.41439834 -0.16887271 4282664254
0.64307171 0.41701382 -0.17303137 4282795584
0.64326501 0.42845473 -0.17710499 4282926400
0.64295268 0.42585438 -0.17290398 4282860864
0.64323705 0.43580785 -0.1741204 4282795071
0.64374107 0.44391063 -0.17991152 4282859581
0.64354002 0.44261748 -0.17620949 4282860093
0.64347816 0.44970834 -0.17973036 4283383351
0.64283824 0.44873747 -0.17532368 4283252536
0.64279968 0.45611137 -0.17903316 4293542447
0.64274019 0.45447168 -0.17795812 4291576886
0.64275301 0.4617123 -0.17886695 4294147180
0.6426062 0.45821515 -0.17886108 4294722863
0.69291621 -0.49087363 -0.16550182 4292774265
0.69344085 -0.49373195 -0.15791668 4291527540
0.69291884 -0.48733622 -0.16304116 4294615672
0.69228345 -0.48377898 -0.16414593 4293697670
0.69167483 -0.4781678 -0.16312766 4286150260
0.69123083 -0.47128949 -0.16345133 4285822323
0.6905098 -0.46455994 -0.16337474 4285888374
0.6894238 -0.45200503 -0.162101 4286085496
0.69002575 -0.45701113 -0.16464782 4286019704
0.68901259 -0.44596186 -0.16313511 4286151543
0.68899369 -0.44219077 -0.17018047 4286348406
0.68761832 -0.4362292 -0.16255058 4286151543
0.68841618 -0.43789101 -0.17019829 4286152056
0.68591332 -0.4262417 -0.16451094 4285889654
0.68605644 -0.42678773 -0.16661882 4285823861
0.68413091 -0.41822511 -0.165777 4285889142
0.68468595 -0.42012057 -0.16143125 4285626742
0.68206245 -0.40809342 -0.16668697 4285823863
0.6789723 -0.3930971 -0.16596487 4285954936
0.68038571 -0.40010634 -0.16721718 4285954936
0.67799807 -0.38787755 -0.16576403 4285954935
0.67592585 -0.37456021 -0.16788115 4285757816
0.67490476 -0.36520815 -0.16823819 4285757558
0.67419142 -0.35653085 -0.16755053 4285823092
0.67437392 -0.34747559 -0.16683342 4285626741
0.67590618 -0.32974258 -0.16097146 4285626744
0.67520714 -0.33524522 -0.16566855 4285560949
0.6760757 -0.32819033 -0.16125664 4285495414
0.6764158 -0.3227495 -0.16563307 4285429876
0.67698836 -0.31406969 -0.16481289 4285495155
0.67743742 -0.302508 -0.16314375 4285494897
0.677836 -0.29404584 -0.16165444 4285560434
0.67733699 -0.29424396 -0.16669954 4285494643
0.67764938 -0.28673688 -0.16381457 4285429105
0.67714745 -0.27064356 -0.16295487 4285232755
0.6770311 -0.27548045 -0.16627897 4285363827
0.67699718 -0.26421407 -0.16235687 4285101168
0.67676473 -0.26425603 -0.16848211 4285232240
0.67619181 -0.25722024 -0.16604911 4285166704
0.67608631 -0.25331178 -0.16507813 4285232240
0.6753723 -0.24552031 -0.16632994 4285166446
0.67467326 -0.2367899 -0.16508397 4285231982
0.67405951 -0.2233828 -0.16613102 4284969325
0.67360586 -0.21228239 -0.16734931 4285035374
0.67315894 -0.20204514 -0.16596515 4285034860
0.67313528 -0.19699316 -0.16753189 4285100142
0.67304093 -0.18968767 -0.1694496 4285034863
0.67311686 -0.18988986 -0.16429682 4285035117
0.67312807 -0.17869255 -0.1665027 4284245087
0.67312533 -0.17982936 -0.16573343 4284508516
0.67315578 -0.17064102 -0.16759473 4284245345
0.67326653 -0.17306893 -0.17104506 4283849558
0.67298037 -0.16053693 -0.16837652 4284903529
0.67314678 -0.16305311 -0.1681505 4283981658
0.67283005 -0.15369995 -0.16728058 4284837482
0.67300755 -0.15422784 -0.16769792 4283718229
0.67242151 -0.14601478 -0.16620916 4284574823
0.67258352 -0.14643124 -0.16686359 4283652179
0.67197406 -0.13711271 -0.16674438 4284113501
0.67230904 -0.13989399 -0.1645022 4283652179
0.67092609 -0.12715428 -0.16581783 4284376418
0.67114621 -0.12611586 -0.16606785 4283651410
0.67042994 -0.11738464 -0.16631885 4284311137
0.67064327 -0.11720429 -0.16647047 4283651408
0.66971743 -0.10576752 -0.16520186 4284114013
0.67003304 -0.10614184 -0.16632633 4283454284
0.66891211 -0.093811736 -0.1652353 4283718226
0.66958815 -0.097838834 -0.16945165 4283388233
0.6679588 -0.083865955 -0.16517901 4283585870
0.66882473 -0.089565828 -0.17025188 4283321927
0.66721141 -0.077856645 -0.16428149 4283454283
0.66687655 -0.073001325 -0.16537297 4283388748
0.66551989 -0.060422517 -0.16714957 4283586897
0.66569543 -0.064476416 -0.16309917 4283191370
0.66482002 -0.051232982 -0.16452166 4283257420
0.66495401 -0.055935055 -0.16420317 4282927940
0.66359073 -0.037752904 -0.16265459 4283388751
0.66434902 -0.043377042 -0.16565542 4282993479
0.66263074 -0.027720796 -0.16231336 4283454545
0.66323906 -0.031487111 -0.16311695 4283191117
0.66435999 -0.030660642 -0.1690973 4282467133
0.66322237 -0.022774022 -0.16462034 4283585614
0.66329241 -0.020073978 -0.16516946 4283059270
0.66374487 -0.022305245 -0.16816159 4282466875
0.6628387 -0.013826843 -0.16625392 4283650894
0.66304582 -0.014389395 -0.16733943 4282401081
0.66186565 -0.0041781566 -0.16685583 4283519823
0.66214073 -0.0055192271 -0.16692725 4282335545
0.66127104 0.0039159972 -0.16781029 4283389264
0.66154963 0.0033994447 -0.16891609 4282204218
0.66118377 0.010200025 -0.17032096 4283519819
0.66086489 0.012548805 -0.16539809 4282993990
0.6614511 0.0092938617 -0.16851375 4282204218
0.6608091 0.021526482 -0.16695194 4282862661
0.65914178 0.033769876 -0.16314211 4283520588
0.66009754 0.03064312 -0.16723107 4282599490
0.65884447 0.039846942 -0.16237582 4283586385
0.65928781 0.042904068 -0.1670247 4282862918
0.65934694 0.046450857 -0.16759841 4282007865
0.65865856 0.053245913 -0.16599824 4283651664
0.65893847 0.054164395 -0.16694047 4282073402
0.65781534 0.066375658 -0.16489431 4283783763
0.65834916 0.064920917 -0.16498241 4282270782
0.65725929 0.079264306 -0.16728182 4283915605
0.65749234 0.075702429 -0.16479026 4283980886
0.65785402 0.075148046 -0.16624741 4282205502
0.65661615 0.085642442 -0.16429773 4283981913
0.65683138 0.085687846 -0.16672647 4283981658
0.65710479 0.085079812 -0.16638696 4282271552
0.65599793 0.096116379 -0.16294959 4284441182
0.65628779 0.095993541 -0.16861591 4284244572
0.65642583 0.095217317 -0.1658224 4282402881
0.65497261 0.10716384 -0.16248186 4284507234
0.65522689 0.10844867 -0.16679826 4283849558
0.6558122 0.10445947 -0.16767967 4282534211
0.65430212 0.1121725 -0.16114847 4284572774
0.65441597 0.11573019 -0.16585138 4283849814
0.65531713 0.11180353 -0.16940923 4282600519
0.65322191 0.12780006 -0.16265699 4284771432
0.65359873 0.12372963 -0.16528825 4283784793
0.65292257 0.13490033 -0.16407794 4284837226
0.65300179 0.13532604 -0.16403513 4282994765
0.65254182 0.14389159 -0.16411525 4284837223
0.65267116 0.1438185 -0.16374059 4282995276
0.65221852 0.15153176 -0.16408874 4285165160
0.65232748 0.15279911 -0.16546735 4283258192
0.65160221 0.16326611 -0.16439673 4285165163
0.65184218 0.16193844 -0.16668978 4283652949
0.65116823 0.17055026 -0.16501456 4284771175
0.65144169 0.17095384 -0.16904804 4283324240
0.6505459 0.17847976 -0.16565421 4284442466
0.65057313 0.17986535 -0.16918576 4283521622
0.64888769 0.19289227 -0.16686527 4283521109
0.64976156 0.18717951 -0.17053962 4283521366
0.64796853 0.20194288 -0.16794768 4283521109
0.64692658 0.21200866 -0.16762203 4283521109
0.64609253 0.22474152 -0.1659584 4283389779
0.64609993 0.23527825 -0.16960523 4283455060
0.64573157 0.23642617 -0.16465932 4283323987
0.64558762 0.24444464 -0.16488098 4283323988
0.64543188 0.2537201 -0.16304024 4283192402
0.64592624 0.25762177 -0.16756627 4283258194
0.64541256 0.2657772 -0.16310917 4283323474
0.64582348 0.26190898 -0.16739663 4283323730
0.64574021 0.27175203 -0.16451553 4283323472
0.64608252 0.28420773 -0.16512452 4283192144
0.64581972 0.29402575 -0.16506267 4283191885
0.64602637 0.29344779 -0.16784805 4283126351
0.64506328 0.30341518 -0.1658522 4283060554
0.64582247 0.2992107 -0.16860455 4283126349
0.64449513 0.31492421 -0.16732481 4282928968
0.64393759 0.32795224 -0.16781574 4282928455
0.6437102 0.3352676 -0.16880603 4282862662
0.64335406 0.34538215 -0.16814603 4282796867
0.64300466 0.35680678 -0.16834848 4282665282
0.64308482 0.36695459 -0.16812602 4282795841
0.6430915 0.38134232 -0.16313003 4282927170
0.64306217 0.37365186 -0.16481948 4282861633
0.64293677 0.38867265 -0.16138758 4282861377
0.64350927 0.38970098 -0.16687033 4282927171
0.6427002 0.39853153 -0.16351849 4282598720
0.64324743 0.39407104 -0.1661844 4282861379
0.64213687 0.4075717 -0.16196838 4282598718
0.64158392 0.4147903 -0.16113517 4282795326
0.64218271 0.41905293 -0.1664377 4282795583
0.64152431 0.42323786 -0.1627885 4282795070
0.64159197 0.42694929 -0.16293949 4282795070
0.64141697 0.43433264 -0.16361849 4282795070
0.64079595 0.44175082 -0.16132337 4282991164
0.64128506 0.44116196 -0.16454339 4282860091
0.64061689 0.44710219 -0.16319928 4283514166
0.64114082 0.44658339 -0.16678165 4283186744
0.64068961 0.45141834 -0.16810107 4291970614
0.64058435 0.45437673 -0.16862828 4293542446
0.64054114 0.46096152 -0.17019287 4293947743
0.64035952 0.45718688 -0.16733778 4294526256
0.69327652 -0.49161845 -0.15501721 4291723627
0.693169 -0.49373379 -0.15651076 4293561451
0.69270891 -0.48735353 -0.14768022 4293563509
0.69243383 -0.48735562 -0.15261663 4294353011
0.69171423 -0.48062927 -0.15042749 4294550910
0.69199914 -0.48364523 -0.15449831 4294616956
0.69133168 -0.47824296 -0.1500366 4290088840
0.69123977 -0.47586808 -0.15315972 4286412407
0.69079161 -0.47242522 -0.15193729 4285888118
0.69109565 -0.47316319 -0.14868039 4285953912
0.68982911 -0.45929983 -0.15705468 4285888631
0.69024372 -0.46427831 -0.15159068 4285757560
0.68956608 -0.45428133 -0.15279628 4285757302
0.68994844 -0.45837203 -0.15138634 4285758072
0.68875307 -0.44476053 -0.15354589 4285888885
0.68775481 -0.43660629 -0.15231112 4285823607
0.68725026 -0.43262708 -0.14926802 4285823092
0.68633634 -0.42844668 -0.15641378 4285888886
0.68610275 -0.4263047 -0.15275116 4285757557
0.6843003 -0.41813695 -0.15816893 4285692279
0.68472844 -0.41957369 -0.15283054 4285823351
0.68235642 -0.40881532 -0.15419148 4285757813
0.67911631 -0.39399692 -0.15527378 4285626742
0.68023241 -0.39875299 -0.15551665 4285692534
0.67741901 -0.38639006 -0.1553866 4285692278
0.67542297 -0.3754636 -0.15545899 4285561206
0.67417234 -0.3657673 -0.15453295 4285691764
0.67387038 -0.35711974 -0.15466422 4285757301
0.67450845 -0.34596506 -0.15481411 4285560692
0.67574829 -0.33239043 -0.15818384 4285560693
0.67567188 -0.33518445 -0.15386036 4285560437
0.67660552 -0.32353768 -0.15551285 4285429108
0.6772418 -0.31353366 -0.15648785 4285560435
0.67741114 -0.30999008 -0.15032426 4285494642
0.67768151 -0.3019776 -0.15702772 4285560436
0.6780386 -0.30084968 -0.15228769 4285494640
0.67793876 -0.2927666 -0.15731509 4285429621
0.67830127 -0.2937175 -0.15202163 4285429362
0.67836893 -0.28529036 -0.15499671 4285429107
0.67843449 -0.28749284 -0.1509203 4285363569
0.6772964 -0.26956928 -0.16018055 4285232756
0.6782937 -0.27526045 -0.15469366 4285297776
0.67706698 -0.26526654 -0.1596927 4285232497
0.67748117 -0.26412284 -0.1545817 4285232240
0.67646688 -0.25522029 -0.15617503 4285035376
0.67567533 -0.24567275 -0.15510741 4284904045
0.67488688 -0.2370325 -0.15478928 4284969581
0.67408323 -0.22549441 -0.15624383 4285035374
0.67346537 -0.21262437 -0.1573094 4284969582
0.67316091 -0.20133124 -0.1572843 4285034859
0.67295575 -0.19158958 -0.15584399 4284838250
0.67268163 -0.17875385 -0.15707383 4284311136
0.67279685 -0.17969164 -0.16160277 4284838504
0.67259181 -0.17184082 -0.15808509 4284179295
0.67229921 -0.15961474 -0.15778625 4284245858
0.67256004 -0.16388544 -0.16018625 4283981916
0.67228854 -0.15514304 -0.15786532 4284509029
0.67254448 -0.1540367 -0.16021515 4283718228
0.671983 -0.14485475 -0.15750712 4284640358
0.67240018 -0.14569896 -0.16001675 4283717716
0.67143303 -0.13547176 -0.1571382 4284376928
0.67165792 -0.1381398 -0.1575426 4283717458
0.67080379 -0.12665214 -0.15567704 4284113242
0.6707713 -0.125673 -0.15966599 4283782993
0.66999686 -0.11740681 -0.15643403 4284113499
0.66990513 -0.11388697 -0.15641706 4283783507
0.66918325 -0.10261724 -0.15558288 4283915863
0.66949767 -0.10894316 -0.15630968 4283585614
0.66856295 -0.093888514 -0.15412851 4283717713
0.66781706 -0.083494417 -0.15517785 4283520333
0.66680318 -0.074110858 -0.15349875 4283388234
0.66658407 -0.070911154 -0.15666276 4283717200
0.66544181 -0.063362621 -0.15089752 4283058756
0.66546351 -0.063537657 -0.1561413 4283454285
0.66400057 -0.048434664 -0.1505556 4282663999
0.6645171 -0.051759023 -0.15273027 4282927427
0.66472554 -0.055860203 -0.15378264 4283586384
0.66340744 -0.040515158 -0.15324363 4282861635
0.66393989 -0.045474742 -0.15373914 4283323212
0.6624366 -0.028062977 -0.15478699 4283520590
0.66280925 -0.031654079 -0.15368335 4282927684
0.66204113 -0.022685235 -0.15507041 4283520078
0.66256309 -0.02245515 -0.15695907 4282598205
0.66242909 -0.021742787 -0.15193197 4282466875
0.66201949 -0.016790284 -0.1575724 4283585613
0.66151822 -0.013998612 -0.1550992 4283454283
0.66240251 -0.014474747 -0.15637925 4282401339
0.66092515 -0.0042377794 -0.15623219 4283454799
0.66153628 -0.0056051132 -0.15738796 4282335802
0.66051668 0.0027829581 -0.15684493 4283389005
0.66079944 0.002300164 -0.1573346 4282335290
0.65999776 0.013378678 -0.15741079 4283191368
0.66026145 0.011052622 -0.15536071 4282401081
0.65976244 0.021755639 -0.15576708 4282862403
0.65966362 0.019916864 -0.15215541 4282204216
0.65897 0.034559701 -0.1584466 4283455311
0.65922672 0.031214785 -0.15558726 4282796611
0.65916431 0.034233704 -0.15194751 4282072888
0.65846241 0.04031457 -0.15683353 4283455053
0.65857011 0.042601328 -0.15594707 4282994505
0.65856868 0.046361122 -0.15498842 4282204474
0.65791023 0.054479215 -0.15469344 4283652178
0.65816915 0.054253601 -0.15658361 4282270267
0.65719956 0.066725001 -0.15485932 4283783764
0.65746468 0.065441921 -0.15594077 4282401854
0.6565147 0.076657772 -0.15482146 4283651924
0.65697014 0.075314298 -0.15898347 4282271039
0.6556133 0.088778041 -0.15542029 4284178010
0.65592629 0.083040193 -0.1552013 4283126606
0.65655029 0.08554703 -0.15990329 4282271552
0.65510219 0.096688099 -0.15503637 4284375645
0.65530789 0.096734487 -0.15352249 4282468161
0.65604103 0.094370931 -0.16049536 4282337345
0.65425515 0.10744596 -0.15442827 4284769630
0.65451926 0.10720301 -0.15448125 4282534211
0.6535024 0.11650078 -0.15583327 4284835940
0.65362185 0.11566181 -0.15505154 4282600007
0.65272027 0.12458996 -0.15539126 4284771430
0.65290958 0.1237126 -0.15619721 4282666314
0.65224457 0.13527271 -0.15537867 4284902761
0.65251809 0.13320038 -0.15629517 4282797643
0.65208179 0.13786767 -0.15195304 4282863436
0.65191841 0.14437389 -0.15576683 4285099626
0.65213573 0.14364365 -0.1578037 4283060812
0.65195006 0.14329202 -0.15150081 4282929226
0.65163475 0.15281628 -0.15687589 4285035113
0.65182894 0.15260008 -0.15665035 4283060814
0.65163487 0.14817448 -0.15183818 4282863689
0.65131342 0.1624395 -0.15668453 4284968297
0.65144765 0.16040128 -0.15557098 4283191886
0.65105754 0.16969429 -0.15883678 4284112988
0.65096897 0.17004694 -0.15427609 4284639589
0.65003884 0.18098731 -0.15727696 4283389266
0.65031081 0.17674372 -0.15652162 4285428593
0.64837027 0.19257182 -0.15653194 4283389522
0.6467638 0.20337211 -0.15647817 4283389524
0.64599687 0.21319517 -0.15507405 4283389523
0.64518684 0.22456934 -0.15100352 4283258194
0.64526916 0.22402756 -0.15426748 4283323729
0.64486951 0.23211269 -0.15344156 4283258194
0.64464194 0.23643187 -0.15488735 4283126094
0.6442073 0.2457978 -0.15397689 4283192144
0.64410806 0.25679609 -0.15327653 4283192143
0.6442855 0.26344708 -0.15485348 4283191887
0.64444649 0.27183825 -0.15507042 4283126351
0.64497644 0.28462374 -0.15526579 4283060302
0.64480692 0.29276896 -0.15502763 4283060040
0.64413291 0.30315778 -0.15543957 4282863175
0.64344853 0.3141593 -0.15669265 4282862661
0.64284444 0.32755893 -0.15935658 4282796870
0.64243841 0.3343077 -0.15815495 4282730820
0.64117151 0.3515889 -0.14913978 4282664255
0.64177972 0.34707469 -0.15596098 4282730561
0.64170337 0.35744253 -0.15606345 4282598976
0.64156705 0.37201697 -0.15129216 4282663998
0.64161545 0.36923996 -0.15484646 4282598720
0.64201963 0.3812412 -0.15281813 4282598207
0.64212817 0.3747645 -0.15593706 4282533184
0.64186525 0.38913268 -0.15408427 4282664000
0.6415475 0.39797321 -0.15622178 4282663998
0.64076328 0.40039197 -0.15200555 4282532669
0.64122999 0.40673849 -0.15744148 4282598206
0.64080644 0.40764096 -0.15331401 4282532670
0.64094251 0.41605327 -0.15787771 4282794816
0.6405105 0.41617763 -0.15490444 4282598207
0.64036763 0.41610262 -0.15322222 4282532414
0.64043874 0.42602772 -0.1558371 4282597949
0.64006937 0.42201421 -0.15218517 4282598205
0.64009202 0.43413261 -0.15324976 4282663227
0.64063537 0.43306553 -0.15821508 4282663740
0.64023322 0.44024181 -0.15593608 4282794300
0.64075744 0.43794885 -0.15929854 4282729020
0.63976645 0.44554454 -0.15642311 4283841591
0.63901609 0.45051593 -0.15743589 4293739825
0.63950354 0.454146 -0.16207926 4294590506
0.63852572 0.45933288 -0.15906851 4293813840
0.63882208 0.45667413 -0.16029608 4294591534
0.69267261 -0.48619702 -0.1432137 4294023536
0.69272262 -0.48680794 -0.1473051 4294878837
0.69205189 -0.48234057 -0.14213924 4294681463
0.69191378 -0.48122635 -0.14191072 4294158216
0.69157845 -0.47898522 -0.14523056 4291138952
0.69126141 -0.47680271 -0.14229551 4286150002
0.69115776 -0.47548595 -0.14339158 4285821812
0.6911093 -0.47280473 -0.14148606 4285887605
0.69094169 -0.4726361 -0.1444988 4285953143
0.69025248 -0.46222213 -0.14404009 4285822327
0.69053721 -0.46598801 -0.14095855 4285887606
0.68958354 -0.45290795 -0.14648268 4285429106
0.68997455 -0.45746982 -0.14350927 4285625973
0.68906093 -0.44511443 -0.14333175 4285625972
0.6893363 -0.44776577 -0.14017293 4285493873
0.68800825 -0.43698186 -0.14408554 4285692020
0.68741798 -0.43319696 -0.14637068 4285889140
0.68632138 -0.42743218 -0.14126422 4285822322
0.68631405 -0.42730224 -0.14651267 4285822580
0.68479854 -0.41930202 -0.14157838 4285822321
0.68477523 -0.41938522 -0.14566126 4285953651
0.68258035 -0.40888032 -0.14379016 4285822580
0.67932546 -0.39352751 -0.14743656 4285495412
0.68040031 -0.39835423 -0.14323623 4285757557
0.67795748 -0.3866145 -0.14482667 4285560692
0.67933929 -0.39178491 -0.13890111 4285691503
0.67568171 -0.37460375 -0.14478973 4285626229
0.67462784 -0.36518461 -0.14358626 4285495156
0.67447239 -0.35617214 -0.14297304 4285494899
0.6752066 -0.3454361 -0.14156224 4285560691
0.67594081 -0.33338535 -0.14439674 4285560434
0.67708033 -0.32356167 -0.14303899 4285494387
0.67761171 -0.31815854 -0.13935299 4285494645
0.67794502 -0.31189427 -0.14252307 4285494385
0.67823708 -0.30236498 -0.14299026 4285363313
0.67865652 -0.29394501 -0.14478908 4285297777
0.67862183 -0.2981365 -0.13921307 4285166193
0.67871565 -0.28102592 -0.14883596 4285429359
0.67918849 -0.28430834 -0.14464854 4285100911
0.67870682 -0.27315196 -0.14751434 4285297519
0.67914903 -0.27579412 -0.14404227 4285231727
0.67809761 -0.26621529 -0.14626783 4285100912
0.67832404 -0.27019817 -0.139964 4285232754
0.67680186 -0.25573978 -0.1469755 4284969582
0.67545646 -0.24571043 -0.14526902 4284904046
0.67452955 -0.23541451 -0.14599898 4284904047
0.67368037 -0.22348711 -0.1444781 4285034862
0.67417127 -0.22934528 -0.14442949 4284969838
0.67323053 -0.21266168 -0.14436406 4284969068
0.67329568 -0.21090341 -0.15111953 4284707437
0.67285544 -0.20168841 -0.14567517 4284969067
0.67304182 -0.19999954 -0.15083301 4284968812
0.67253345 -0.19062886 -0.14600094 4284837993
0.6727761 -0.18968248 -0.15120178 4284772458
0.67202526 -0.18164569 -0.14548048 4284837737
0.67223513 -0.17784497 -0.14960882 4283849818
0.67180902 -0.17248084 -0.14617915 4284772202
0.67196614 -0.17320587 -0.14803165 4283784024
0.67178458 -0.16288228 -0.14773671 4284706152
0.67190677 -0.16318348 -0.1487509 4283849558
0.67166495 -0.16274959 -0.14537714 4283652949
0.67168236 -0.15253168 -0.14925486 4284837479
0.67176515 -0.15354151 -0.14875919 4283717972
0.67150545 -0.15356754 -0.14484976 4283652433
0.67120063 -0.14449248 -0.14591599 4284574821
0.67145634 -0.14508751 -0.14817576 4283520850
0.67084587 -0.13535649 -0.14729275 4284376931
0.67091554 -0.13684621 -0.14618711 4283716944
0.67037421 -0.12664312 -0.14863601 4284244830
0.67037517 -0.12578589 -0.14293493 4283848016
0.66961128 -0.11710248 -0.1465223 4284245085
0.6698032 -0.11580016 -0.1456203 4283585358
0.66905701 -0.10323165 -0.14685279 4284113240
0.6691907 -0.10689113 -0.14511822 4283453772
0.66842926 -0.092654712 -0.14627436 4283717970
0.66864896 -0.094714575 -0.14173332 4283321928
0.66790164 -0.083432108 -0.14643009 4283520077
0.6681214 -0.08391317 -0.14013386 4283256135
0.66675985 -0.0729229 -0.14440623 4283388236
0.66755563 -0.077997401 -0.138548 4283124806
0.66556901 -0.06281998 -0.1448632 4283387979
0.66431612 -0.053181067 -0.14460595 4283125319
0.66463745 -0.054199643 -0.1477845 4283586897
0.66310704 -0.039803173 -0.1441347 4283191371
0.66346008 -0.04333004 -0.14352891 4282796356
0.66186821 -0.027071541 -0.14874417 4283521619
0.66250432 -0.033206597 -0.14422069 4283389006
0.66282737 -0.032972552 -0.14485942 4282467134
0.66318691 -0.038321652 -0.13952664 4282467648
0.66144145 -0.021235153 -0.14842038 4283454289
0.66146058 -0.023101423 -0.14464124 4283454799
0.66200012 -0.024164438 -0.14629629 4282532668
0.66065663 -0.014586356 -0.14562203 4283585614
0.66111231 -0.015412984 -0.14560243 4282401339
0.66007316 -0.005074447 -0.14654796 4283651407
0.66045797 -0.0056590885 -0.14703254 4282401339
0.65973246 0.0033075029 -0.14659023 4283651662
0.66016525 0.0028512278 -0.14554483 4282335547
0.65944481 0.011879395 -0.14650005 4283520590
0.65957159 0.01176364 -0.14584932 4282335547
0.65925336 0.021884918 -0.1464619 4283585869
0.65932363 0.022083102 -0.14585559 4282336060
0.65875494 0.03284464 -0.146185 4283455052
0.6588372 0.032524187 -0.14535825 4282138938
0.65787095 0.043406636 -0.14460257 4283389006
0.65842408 0.041832455 -0.14785518 4282138938
0.65715808 0.054822337 -0.14585404 4283322954
0.65767688 0.053641424 -0.15017007 4282204474
0.65654403 0.065684512 -0.14717279 4283191624
0.65721989 0.061567724 -0.15016638 4282336315
0.65603322 0.074798241 -0.14737767 4283191883
0.65505069 0.089210361 -0.14886363 4284112732
0.65536958 0.083928831 -0.14715564 4283257934
0.65457106 0.097568721 -0.14832802 4284179037
0.65458715 0.096165627 -0.14503486 4283060299
0.6537171 0.10770211 -0.14621024 4284441951
0.65391368 0.10707781 -0.14683966 4282402884
0.65281337 0.11646046 -0.1460453 4284573795
0.65296268 0.11643494 -0.14597677 4282468678
0.65239537 0.12426973 -0.14645369 4284705382
0.65244561 0.12436384 -0.14711522 4282600522
0.65189028 0.13426028 -0.14732656 4284968041
0.65195447 0.13419278 -0.14528044 4282798157
0.65197814 0.13750617 -0.14848359 4282798156
0.65150851 0.14431372 -0.14632547 4284968552
0.6514582 0.14196837 -0.14219022 4283916119
0.65173227 0.14306796 -0.14707349 4282929482
0.65104949 0.1522084 -0.14485762 4284903016
0.65127867 0.1538503 -0.14621648 4282994763
0.65151387 0.14902373 -0.14821415 4282929228
0.65082437 0.15984316 -0.14595348 4284968813
0.6508981 0.16226093 -0.14553399 4283389264
0.65010846 0.17394482 -0.14825436 4283192144
0.65047872 0.16916592 -0.14565085 4284376673
0.64917392 0.18223163 -0.14692579 4283257938
0.64981455 0.17628476 -0.14660025 4284244833
0.647578 0.19264933 -0.14548549 4283257937
0.64623541 0.2031783 -0.14527896 4283192658
0.64548826 0.21271168 -0.14442477 4283192658
0.64477658 0.22666369 -0.14494523 4283126862
0.64475679 0.22467414 -0.14434148 4283061327
0.6436463 0.23775353 -0.14319739 4283126607
0.64365381 0.23641659 -0.14289241 4283126607
0.64326262 0.24659225 -0.14444047 4283126606
0.64317596 0.25537363 -0.14508736 4283126092
0.64322406 0.26452318 -0.14598949 4282994250
0.64331889 0.27315128 -0.14511284 4282994764
0.64276159 0.27337113 -0.14055438 4282994509
0.64362323 0.28357226 -0.14549202 4282928714
0.64337778 0.29277655 -0.14364026 4282797383
0.64292067 0.3020137 -0.14385663 4282862663
0.64221364 0.31361261 -0.14328371 4282731332
0.64168048 0.32661408 -0.14250761 4282534210
0.64087272 0.33902547 -0.14154021 4282467904
0.64151084 0.33466136 -0.14518754 4282468418
0.64020044 0.3484371 -0.14033344 4282533183
0.64132237 0.34484202 -0.14729524 4282598976
0.6400156 0.35761106 -0.14103593 4282532669
0.64080817 0.35816836 -0.14770065 4282664253
0.64007044 0.36818272 -0.14231363 4282532669
0.64117336 0.3645612 -0.14843024 4282598462
0.64081144 0.37917653 -0.1434719 4282466878
0.64072323 0.38673702 -0.14453688 4282466878
0.64075214 0.39295915 -0.14869489 4282598205
0.6402517 0.39682391 -0.14662474 4282466877
0.64015818 0.404163 -0.14871231 4282598462
0.64012015 0.40700692 -0.14778358 4282532670
0.63992482 0.41575095 -0.14866225 4282597949
0.63996387 0.41847104 -0.14846572 4282794814
0.63965982 0.42894816 -0.14751114 4282794555
0.63983488 0.42720667 -0.14939651 4282532155
0.63986564 0.42255172 -0.14909749 4282597950
0.63973951 0.43561858 -0.14945085 4283056186
0.63969928 0.43294257 -0.14817294 4282728762
0.63970619 0.4375695 -0.14983667 4283056186
0.63953543 0.43996257 -0.14853576 4282990650
0.6390667 0.44627747 -0.14909841 4284759607
0.63815367 0.45219445 -0.14934592 4294460976
0.63734353 0.45675644 -0.14964466 4293946450
0.63795042 0.45629972 -0.15371828 4294921779
0.69278246 -0.485672 -0.13614021 4294681202
0.69284564 -0.48791075 -0.13181058 4293694579
0.69218391 -0.48180622 -0.13480303 4294746997
0.69232708 -0.48359984 -0.13283703 4294746995
0.69146198 -0.47769612 -0.13247158 4290086012
0.69133651 -0.47651252 -0.13605544 4285887089
0.69093174 -0.47163275 -0.12850885 4285493105
0.69103396 -0.47219661 -0.13614444 4285690484
0.69099915 -0.47026497 -0.13829358 4285953650
0.69040471 -0.46510044 -0.1299134 4285493874
0.69045758 -0.46463814 -0.13518852 4285690996
0.69058669 -0.46663076 -0.13754769 4285953654
0.6895296 -0.45422202 -0.13113439 4285625460
0.68992043 -0.45534208 -0.13665925 4285756276
0.68880683 -0.44446874 -0.13352057 4285690738
0.68921506 -0.44822308 -0.13703966 4285624945
0.68751907 -0.43547601 -0.13420705 4285690995
0.68603069 -0.42731366 -0.13350555 4285690739
0.6841594 -0.41817194 -0.13538332 4285821811
0.68267685 -0.40845665 -0.13383387 4285756532
0.68069899 -0.39518502 -0.12960091 4285624947
0.68092388 -0.39864865 -0.13519506 4285691251
0.67881536 -0.38547379 -0.13165005 4285691248
0.67940229 -0.39063475 -0.13577524 4285691247
0.67702699 -0.3753227 -0.13344964 4285691248
0.67572773 -0.3659119 -0.13433762 4285494384
0.67533207 -0.35616824 -0.13389327 4285494128
0.67585349 -0.34406543 -0.13406712 4285494129
0.67642969 -0.33414251 -0.13400392 4285428849
0.67708558 -0.32559177 -0.13458338 4285494384
0.67767566 -0.31929803 -0.13161524 4285428335
0.67820156 -0.31244546 -0.13278566 4285363056
0.67840821 -0.30331084 -0.13407125 4285166192
0.6787132 -0.29421529 -0.13519132 4285166191
0.67863816 -0.29818216 -0.13382331 4285165678
0.67886019 -0.28321412 -0.1332154 4285035119
0.67863297 -0.27635109 -0.1332968 4285034863
0.6779201 -0.26584503 -0.13926984 4284904046
0.67791349 -0.26713717 -0.13441959 4285034606
0.67708313 -0.25833306 -0.13985029 4284904302
0.67658794 -0.25596279 -0.13452245 4285034860
0.67508996 -0.24272594 -0.13931017 4284903790
0.67541659 -0.24657042 -0.13443351 4284772716
0.67437446 -0.23570539 -0.13665341 4284969068
0.67460692 -0.23944151 -0.13151339 4284641130
0.67354369 -0.22169849 -0.136732 4284969069
0.67386359 -0.22848062 -0.13347289 4284969324
0.67321545 -0.21387555 -0.13478106 4284903532
0.67272133 -0.20133616 -0.13628978 4284903531
0.67221516 -0.19088572 -0.13720094 4284772200
0.67146856 -0.18005571 -0.13827522 4284837224
0.67167503 -0.17765185 -0.14114219 4283783255
0.6712296 -0.17191853 -0.13877125 4285033832
0.67145723 -0.1732161 -0.13860443 4283783255
0.67159569 -0.16938762 -0.14207186 4283717718
0.67086321 -0.16224346 -0.1374114 4284706151
0.67102009 -0.16429231 -0.13560575 4283783255
0.67157924 -0.16332889 -0.14117807 4283652438
0.67064548 -0.15368855 -0.13704966 4284640868
0.67086518 -0.15091628 -0.13753401 4283783251
0.67112964 -0.15433298 -0.13938506 4283652178
0.6703158 -0.14457086 -0.13519005 4284575077
0.67078364 -0.14347133 -0.13862239 4283586131
0.6707325 -0.14761278 -0.1379063 4283652439
0.67013389 -0.1351707 -0.13600548 4284508772
0.67056918 -0.1358375 -0.13719493 4283651409
0.66986281 -0.12558112 -0.13499376 4284377187
0.67004335 -0.12497506 -0.13435461 4283651152
0.66939592 -0.11595548 -0.1342237 4284310878
0.66955495 -0.11443508 -0.1338063 4283650894
0.66896272 -0.10547268 -0.13384491 4284179292
0.6691792 -0.10526676 -0.13451083 4283453771
0.66867381 -0.094267182 -0.13440922 4283916633
0.66876888 -0.093935542 -0.13420415 4283321928
0.66785729 -0.083297074 -0.13383695 4283850326
0.66801149 -0.082941897 -0.13306962 4283059270
0.66668594 -0.07114768 -0.13287923 4283520591
0.66730428 -0.07640218 -0.1330982 4282993475
0.66550434 -0.062724181 -0.13236785 4283257162
0.66387022 -0.048681773 -0.13538265 4283783505
0.6643523 -0.053548735 -0.13287339 4283125319
0.6632756 -0.042016663 -0.13526107 4283651919
0.66385514 -0.045960791 -0.13343303 4282861377
0.66342938 -0.041022018 -0.13490778 4282730047
0.66239864 -0.034367438 -0.13558207 4283520848
0.66264391 -0.032631546 -0.13527088 4282598206
0.66291875 -0.036634121 -0.13507812 4282598462
0.66114634 -0.023567444 -0.13595667 4283520848
0.66158211 -0.024752323 -0.13654865 4282598206
0.66036868 -0.014361953 -0.13602869 4283520590
0.66071969 -0.015915845 -0.13655929 4282532413
0.66069138 -0.012434532 -0.13399564 4282532669
0.65986884 -0.0054380125 -0.13788418 4283717199
0.66024703 -0.0050950772 -0.13899951 4282335804
0.66036683 -0.007002105 -0.13416398 4282401596
0.65949929 0.0026822346 -0.13750395 4283782734
0.65974218 0.0029969809 -0.13673726 4282336061
0.66025597 -0.0015068123 -0.13230459 4282401596
0.65937614 0.013262074 -0.1363501 4283717454
0.65953559 0.012146369 -0.13567629 4282204732
0.65913504 0.022721242 -0.1349857 4283651661
0.65924019 0.021748733 -0.13543291 4282335804
0.6585108 0.032454927 -0.13557173 4283257677
0.65876389 0.030785328 -0.13787985 4282204475
0.65767425 0.042569146 -0.13622025 4282994247
0.65829843 0.037792176 -0.13987315 4282138938
0.65689033 0.053802185 -0.13818376 4283059784
0.65631294 0.064359501 -0.13811526 4283191370
0.65549904 0.074593797 -0.1385316 4283126092
0.65472472 0.08639507 -0.13816608 4283323213
0.65394795 0.098707527 -0.13874508 4283520593
0.65304631 0.10983784 -0.13765897 4284376416
0.6534723 0.10529673 -0.13782197 4283060557
0.65245247 0.11628156 -0.13677882 4284573539
0.65251124 0.11707784 -0.13696632 4282534214
0.65190482 0.12366728 -0.13663657 4284639590
0.65196723 0.12445575 -0.13578321 4282666057
0.65142149 0.13466682 -0.13703173 4284705636
0.65151978 0.13408533 -0.13629094 4282863433
0.65123224 0.14401849 -0.13943094 4284902756
0.65113586 0.1436279 -0.13605417 4283849813
0.65087891 0.1525719 -0.13868998 4284902756
0.65073347 0.15226622 -0.1340774 4283652175
0.65059412 0.15835288 -0.13967407 4284771686
0.65049958 0.16110316 -0.13553315 4284046676
0.6495921 0.17393543 -0.13512883 4282928970
0.65027881 0.16979398 -0.13607733 4284244313
0.64902192 0.1812484 -0.13474934 4282994765
0.6494624 0.17531796 -0.13611004 4284639329
0.6476171 0.1921057 -0.13474226 4283192145
0.64600289 0.2037127 -0.13400756 4283192401
0.64485371 0.21427141 -0.13474675 4283126865
0.64402664 0.22367038 -0.13342324 4283061072
0.64325964 0.23611894 -0.13507575 4282995023
0.64253861 0.24430977 -0.13382666 4282994766
0.642102 0.25241816 -0.13498262 4282994764
0.64211392 0.25756869 -0.13558532 4282863434
0.64197111 0.26379815 -0.13377924 4282797387
0.64226085 0.26331463 -0.13675302 4282863180
0.64196426 0.27389306 -0.13381113 4282797385
0.6426304 0.26877251 -0.13946326 4282797387
0.64220041 0.28305528 -0.13480735 4282862664
0.64143574 0.29499272 -0.12973015 4282665798
0.64245462 0.29352975 -0.13769051 4282731335
0.64160103 0.30348215 -0.13168348 4282533957
0.6421836 0.3039794 -0.13761953 4282731076
0.64130378 0.31586578 -0.1305179 4282533954
0.64185143 0.31337357 -0.1370552 4282665539
0.64077491 0.32662472 -0.13050291 4282533440
0.64153439 0.32340398 -0.13676241 4282468416
0.64003593 0.33752796 -0.13137165 4282467646
0.63939059 0.34740338 -0.13176416 4282467134
0.63902992 0.35750508 -0.13236403 4282401598
0.63923854 0.36678293 -0.13323116 4282270011
0.63964015 0.37713039 -0.13320488 4282335548
0.63993049 0.38470134 -0.13470979 4282466621
0.6397056 0.38988772 -0.1353728 4282532413
0.63974428 0.39459753 -0.13686459 4282466620
0.63901603 0.40409973 -0.13451049 4282466876
0.63930362 0.40510446 -0.14072002 4282532413
0.63859868 0.41745532 -0.13560575 4282728762
0.63873237 0.41507089 -0.13687342 4282597691
0.63933647 0.41455796 -0.14202853 4282663229
0.63916326 0.42675802 -0.14020832 4282728508
0.63927549 0.4220323 -0.14306402 4282466106
0.63947612 0.42060921 -0.14456351 4282663230
0.63928056 0.43349001 -0.14039643 4283056446
0.63908529 0.44027588 -0.13966714 4283252793
0.63848901 0.44541666 -0.13866574 4284234805
0.63766021 0.45100936 -0.13999759 4293936952
0.6366322 0.45633382 -0.14217052 4294006852
0.63643295 0.45618522 -0.13775611 4294527033
0.6925109 -0.48596641 -0.12439593 4293628271
0.69300753 -0.48795596 -0.1286059 4293365363
0.69227099 -0.48164088 -0.12442016 4294680685
0.69239372 -0.48319381 -0.12855513 4294878576
0.69150168 -0.47695166 -0.12371556 4290807931
0.69040275 -0.47034046 -0.12285565 4285492843
0.6898483 -0.46255037 -0.12265338 4285624172
0.69009429 -0.46652022 -0.12342214 4285558894
0.68939108 -0.45572141 -0.12273202 4285690480
0.68948013 -0.45547628 -0.12707147 4285625715
0.68863267 -0.44508421 -0.12446586 4285493872
0.68853807 -0.44373536 -0.12672287 4285625201
0.68769324 -0.43931282 -0.12560196 4285494128
0.68714738 -0.43502289 -0.12518202 4285427825
0.68558794 -0.42715791 -0.12436374 4285493617
0.6829558 -0.41161531 -0.12476023 4285559407
0.68372601 -0.41706392 -0.12299948 4285493358
0.68242377 -0.4062618 -0.12255578 4285297007
0.68244511 -0.40882617 -0.12497455 4285559153
0.68111843 -0.39644158 -0.12365478 4285296753
0.67948353 -0.38622025 -0.12243719 4285428079
0.67749012 -0.3731851 -0.11881214 4285297005
0.67793918 -0.37663651 -0.12299519 4285428334
0.67671686 -0.36708277 -0.11892746 4285362541
0.6763339 -0.36586303 -0.12543091 4285428078
0.67619956 -0.35921866 -0.12010791 4285362796
0.67601609 -0.35494378 -0.1254319 4285428334
0.67646873 -0.34517598 -0.12495219 4285428334
0.67691875 -0.33361572 -0.12264305 4285231726
0.67723143 -0.32716349 -0.12246804 4285165933
0.67755377 -0.32013768 -0.12541077 4285165679
0.67805415 -0.31368223 -0.12558208 4284903275
0.67846775 -0.30899483 -0.12752782 4284508006
0.67828697 -0.30348274 -0.12481995 4285099629
0.67844117 -0.30462196 -0.12583892 4285034092
0.67863703 -0.29361504 -0.12467901 4285034860
0.67859155 -0.28332749 -0.12092812 4284904040
0.67884463 -0.2847667 -0.12489673 4285034859
0.6784026 -0.27797699 -0.12290262 4284969064
0.67851323 -0.27672791 -0.12687239 4284903533
0.67756718 -0.26717931 -0.12622683 4284903533
0.67616689 -0.25681812 -0.12520464 4284837740
0.67476684 -0.24544726 -0.1257318 4284640618
0.67402124 -0.23529536 -0.12461606 4284772204
0.6742751 -0.24019861 -0.12548846 4284640874
0.67325246 -0.2202282 -0.12931365 4284903789
0.67326134 -0.22622484 -0.12475396 4284706667
0.6728375 -0.21263979 -0.12932667 4284837740
0.67255163 -0.21592674 -0.12348587 4284771945
0.67187619 -0.20068659 -0.12691832 4284772201
0.67234707 -0.20693946 -0.12586851 4284837480
0.67134386 -0.191081 -0.1261695 4284771688
0.67066807 -0.18064496 -0.12766322 4284771433
0.67036736 -0.17278914 -0.1252398 4284114014
0.67087078 -0.17105404 -0.13188186 4283521622
0.6701532 -0.16236688 -0.12450705 4284311138
