# .PCD v0.7 - Point Cloud Data file format
VERSION 0.7
FIELDS x y z rgb
SIZE 4 4 4 4
TYPE F F F U
COUNT 1 1 1 1
WIDTH 804
HEIGHT 1
VIEWPOINT 0 0 0 1 0 0 0
POINTS 804
DATA ascii
0.46442518 -0.083883718 0.10874879 4278664549
0.73468947 -0.51896125 -0.56736135 4294901686
0.73468947 -0.51896125 -0.56736135 4294901686
0.73468947 -0.51896125 -0.56736135 4294901686
0.73468947 -0.51896125 -0.56736135 4294901686
0.73468947 -0.51896125 -0.56736135 4294901686
0.73468947 -0.51896125 -0.56736135 4294901686
0.73468947 -0.51896125 -0.56736135 4294901686
0.73468947 -0.51896125 -0.56736135 4294901686
0.73468947 -0.51896125 -0.56736135 4294901686
0.73468947 -0.51896125 -0.56736135 4294901686
0.73468947 -0.51896125 -0.56736135 4294901686
0.73468947 -0.51896125 -0.56736135 4294901686
0.73468947 -0.51896125 -0.56736135 4294901686
0.73468947 -0.51896125 -0.56736135 4294901686
0.73468947 -0.51896125 -0.56736135 4294901686
0.73468947 -0.51896125 -0.56736135 4294901686
0.73468947 -0.51896125 -0.56736135 4294901686
0.73468947 -0.51896125 -0.56736135 4294901686
0.73468947 -0.51896125 -0.56736135 4294901686
0.73468947 -0.51896125 -0.56736135 4294901686
0.73468947 -0.51896125 -0.56736135 4294901686
0.73468947 -0.51896125 -0.56736135 4294901686
0.73468947 -0.51896125 -0.56736135 4294901686
0.73468947 -0.51896125 -0.56736135 4294901686
0.73468947 -0.51896125 -0.56736135 4294901686
0.73468947 -0.51896125 -0.56736135 4294901686
0.73468947 -0.51896125 -0.56736135 4294901686
0.73468947 -0.51896125 -0.56736135 4294901686
0.73468947 -0.51896125 -0.56736135 4294901686
0.73468947 -0.51896125 -0.56736135 4294901686
0.73468947 -0.51896125 -0.56736135 4294901686
0.73468947 -0.51896125 -0.56736135 4294901686
0.73468947 -0.51896125 -0.56736135 4294901686
0.73468947 -0.51896125 -0.56736135 4294901686
0.73468947 -0.51896125 -0.56736135 4294901686
0.73468947 -0.51896125 -0.56736135 4294901686
0.73468947 -0.51896125 -0.56736135 4294901686
0.73468947 -0.51896125 -0.56736135 4294901686
0.73468947 -0.51896125 -0.56736135 4294901686
0.73468947 -0.51896125 -0.56736135 4294901686
0.73468947 -0.51896125 -0.56736135 4294901686
0.73468947 -0.51896125 -0.56736135 4294901686
0.73468947 -0.51896125 -0.56736135 4294901686
0.73468947 -0.51896125 -0.56736135 4294901686
0.73468947 -0.51896125 -0.56736135 4294901686
0.73468947 -0.51896125 -0.56736135 4294901686
0.73468947 -0.51896125 -0.56736135 4294901686
0.73468947 -0.51896125 -0.56736135 4294901686
0.73468947 -0.51896125 -0.56736135 4294901686
0.73468947 -0.51896125 -0.56736135 4294901686
0.73468947 -0.51896125 -0.56736135 4294901686
0.73468947 -0.51896125 -0.56736135 4294901686
0.73468947 -0.51896125 -0.56736135 4294901686
0.73468947 -0.51896125 -0.56736135 4294901686
0.73468947 -0.51896125 -0.56736135 4294901686
0.73468947 -0.51896125 -0.56736135 4294901686
0.73468947 -0.51896125 -0.56736135 4294901686
0.73468947 -0.51896125 -0.56736135 4294901686
0.73468947 -0.51896125 -0.56736135 4294901686
0.73468947 -0.51896125 -0.56736135 4294901686
0.73468947 -0.51896125 -0.56736135 4294901686
0.73468947 -0.51896125 -0.56736135 4294901686
0.73468947 -0.51896125 -0.56736135 4294901686
0.73468947 -0.51896125 -0.56736135 4294901686
0.73468947 -0.51896125 -0.56736135 4294901686
0.73468947 -0.51896125 -0.56736135 4294901686
0.73468947 -0.51896125 -0.56736135 4294901686
0.73468947 -0.51896125 -0.56736135 4294901686
0.73468947 -0.51896125 -0.56736135 4294901686
0.73468947 -0.51896125 -0.56736135 4294901686
0.73468947 -0.51896125 -0.56736135 4294901686
0.73468947 -0.51896125 -0.56736135 4294901686
0.73468947 -0.51896125 -0.56736135 4294901686
0.73468947 -0.51896125 -0.56736135 4294901686
0.73468947 -0.51896125 -0.56736135 4294901686
0.59785485 0.43284708 -0.56976241 4287070344
0.73468947 -0.51896125 -0.56736135 4294901686
0.73468947 -0.51896125 -0.56736135 4294901686
0.73468947 -0.51896125 -0.56736135 4294901686
0.73468947 -0.51896125 -0.56736135 4294901686
0.73468947 -0.51896125 -0.56736135 4294901686
0.73468947 -0.51896125 -0.56736135 4294901686
0.73468947 -0.51896125 -0.56736135 4294901686
0.73468947 -0.51896125 -0.56736135 4294901686
0.73468947 -0.51896125 -0.56736135 4294901686
0.73468947 -0.51896125 -0.56736135 4294901686
0.73468947 -0.51896125 -0.56736135 4294901686
0.73468947 -0.51896125 -0.56736135 4294901686
0.73468947 -0.51896125 -0.56736135 4294901686
0.73468947 -0.51896125 -0.56736135 4294901686
0.73468947 -0.51896125 -0.56736135 4294901686
0.73468947 -0.51896125 -0.56736135 4294901686
0.73468947 -0.51896125 -0.56736135 4294901686
0.73468947 -0.51896125 -0.56736135 4294901686
0.73468947 -0.51896125 -0.56736135 4294901686
0.73468947 -0.51896125 -0.56736135 4294901686
0.73468947 -0.51896125 -0.56736135 4294901686
0.73468947 -0.51896125 -0.56736135 4294901686
0.73468947 -0.51896125 -0.56736135 4294901686
0.73468947 -0.51896125 -0.56736135 4294901686
0.64119381 0.4318231 0.17993335 4285647868
0.64313716 0.4322564 0.18003625 4285451261
0.64579713 0.10415266 0.52651078 4279847279
0.64641768 0.10343816 0.52696425 4281427334
0.64868236 0.10347147 0.52853805 4279786374
0.65150952 0.10153244 0.53049809 4280708758
0.65185869 0.10086396 0.53066903 4280239204
0.65456671 0.09969072 0.53244346 4280637820
0.65584618 0.097779959 0.53329611 4281099912
0.6573329 0.097624436 0.53426558 4280245117
0.66024691 0.053718455 -0.082394652 4283124292
0.66203356 0.01547757 -0.1473667 4282992962
0.66371381 -0.069468386 -0.095833026 4283453768
0.66556329 -0.091401912 -0.097311787 4283059531
0.66691029 -0.36325788 -0.046866801 4291942872
0.66859132 -0.43833309 -0.02989731 4287268488
0.67050803 -0.44024086 -0.030685605 4287203724
0.6724959 -0.44313762 -0.028606595 4290229945
0.67421532 -0.44909278 -0.030791489 4288125083
0.67599654 -0.52193195 -0.080101714 4291477870
0.67764091 -0.52286077 -0.0676248 4286998044
0.67792809 -0.5228951 -0.060460899 4287522066
0.68100226 -0.52064335 -0.19372703 4294967196
0.68307549 -0.52078569 -0.20316973 4294901644
0.6842944 -0.52057952 -0.20967995 4294901641
0.68646854 -0.52189106 -0.2313067 4294770563
0.68694454 -0.52229792 -0.31770009 4294901651
0.68951201 -0.52193576 -0.33969468 4294901642
0.69061655 -0.52243197 -0.34538868 4294967194
0.69189358 -0.5220719 -0.35270178 4294901648
0.69403082 -0.52226323 -0.3654165 4294967181
0.69627565 -0.52185446 0.17310384 4289705058
0.6987251 -0.52157152 0.19143268 4289579428
0.69932479 -0.52109021 0.19534738 4289575559
0.70110327 -0.52115172 -0.40506783 4294901650
0.70273417 -0.52026302 -0.41124538 4294901639
0.70434612 -0.52103812 -0.41658694 4294967179
0.70616841 -0.52148819 -0.42207494 4294901645
0.70807189 -0.52183932 -0.42692477 4294967176
0.70972836 -0.52068961 -0.43071958 4294901638
0.71229565 -0.52118695 -0.43776274 4294901639
0.71399033 -0.52062231 -0.44215623 4294901641
0.71590155 -0.52053469 -0.44743341 4294901641
0.71752077 -0.52100503 -0.45261559 4294901388
0.7192871 -0.51999307 -0.45770261 4294901642
0.7215414 -0.52091748 -0.46752366 4294966933
0.72268355 -0.52078897 -0.47361618 4294637466
0.72349757 -0.52014017 -0.48934034 4294901642
0.72671258 -0.52088869 0.34866276 4290035581
0.72843379 -0.52003682 0.35218832 4289642370
0.72938049 -0.51782882 0.35371539 4279788169
0.73162442 -0.52135485 0.36218372 4288592273
0.73279911 -0.52073461 0.36800691 4289118109
0.73539406 -0.52139843 0.39883488 4289970302
0.73627734 -0.5215804 0.41218901 4290429555
0.73796242 -0.52231795 0.42393288 4290889348
0.73932028 -0.52135915 0.43015289 4290560889
0.74105823 -0.5220257 0.43742964 4290495605
0.74299949 -0.52121377 0.44401088 4290298226
0.74596375 -0.52091032 0.45374346 4290364536
0.74737126 -0.52054578 0.45850199 4290561145
0.74866164 -0.52041405 0.46492133 4290692733
0.75024432 -0.52070868 0.47895408 4290692476
0.75180364 -0.52088064 0.50390285 4289972643
0.75476366 -0.51974005 0.52248102 4290758264
0.75559485 -0.51977146 0.52701008 4290824057
0.75664914 -0.52016753 0.53229749 4290824318
0.75913858 -0.52021044 0.54434574 4290889600
0.76060069 -0.52091521 0.55136251 4290759055
0.76330501 -0.52042049 0.56314784 4290825105
0.76498938 -0.52012306 0.57155788 4290956171
0.7668522 -0.51916611 0.58217394 4291153294
0.76794714 -0.51930523 0.58771098 4291218826
0.77046275 -0.52034545 0.59861416 4291088530
0.77165002 -0.51928252 0.60361993 4291350672
0.77292377 -0.51993889 0.60767585 4291351198
0.77428287 -0.52009106 0.61205453 4291484080
0.77620101 -0.51956224 0.61850178 4291548318
0.77807319 -0.52032155 0.62505418 4291745443
0.77960187 -0.52125919 0.63047129 4291876497
0.78280598 -0.52089113 0.64415866 4293258694
0.78317541 -0.52190107 0.64530832 4293722104
0.7851848 -0.47053298 0.5335266 4289046159
0.78655374 -0.46708158 0.52953053 4289767822
0.78813183 -0.45815277 0.53400981 4290359185
0.78997624 -0.436515 0.54987592 4290424464
0.79164159 -0.42867738 0.5492335 4290490772
0.7933557 -0.4203755 0.55224842 4290622359
0.79519993 -0.40780234 0.54724103 4290687637
0.79720539 -0.39734685 0.55528712 4290687635
0.79867411 -0.38711599 0.55055118 4290622355
0.80074489 -0.37542465 0.62425816 4279053898
0.80253601 -0.36399883 0.62118006 4278988104
0.80438727 -0.35471508 0.61878246 4278987850
0.80610269 -0.34117985 0.62164444 4279512899
0.80887282 -0.34004635 0.62142754 4279841605
0.80918682 -0.3382732 0.62385821 4279512640
0.8115437 0.35512543 0.67492956 4280236876
0.73468947 -0.51896125 -0.56736135 4294901686
0.81432921 0.35818622 0.67793399 4280894804
0.46442518 -0.083883695 0.10874878 4278468194
0.73468947 -0.51896125 -0.56736135 4294901686
0.73468947 -0.51896125 -0.56736135 4294901686
0.73468947 -0.51896125 -0.56736135 4294901686
0.73468947 -0.51896125 -0.56736135 4294901686
0.73468947 -0.51896125 -0.56736135 4294901686
0.73468947 -0.51896125 -0.56736135 4294901686
0.73468947 -0.51896125 -0.56736135 4294901686
0.73468947 -0.51896125 -0.56736135 4294901686
0.73468947 -0.51896125 -0.56736135 4294901686
0.73468947 -0.51896125 -0.56736135 4294901686
0.73468947 -0.51896125 -0.56736135 4294901686
0.73468947 -0.51896125 -0.56736135 4294901686
0.73468947 -0.51896125 -0.56736135 4294901686
0.73468947 -0.51896125 -0.56736135 4294901686
0.73468947 -0.51896125 -0.56736135 4294901686
0.73468947 -0.51896125 -0.56736135 4294901686
0.73468947 -0.51896125 -0.56736135 4294901686
0.73468947 -0.51896125 -0.56736135 4294901686
0.73468947 -0.51896125 -0.56736135 4294901686
0.73468947 -0.51896125 -0.56736135 4294901686
0.73468947 -0.51896125 -0.56736135 4294901686
0.73468947 -0.51896125 -0.56736135 4294901686
0.73468947 -0.51896125 -0.56736135 4294901686
0.73468947 -0.51896125 -0.56736135 4294901686
0.73468947 -0.51896125 -0.56736135 4294901686
0.73468947 -0.51896125 -0.56736135 4294901686
0.73468947 -0.51896125 -0.56736135 4294901686
0.73468947 -0.51896125 -0.56736135 4294901686
0.73468947 -0.51896125 -0.56736135 4294901686
0.73468947 -0.51896125 -0.56736135 4294901686
0.73468947 -0.51896125 -0.56736135 4294901686
0.73468947 -0.51896125 -0.56736135 4294901686
0.73468947 -0.51896125 -0.56736135 4294901686
0.73468947 -0.51896125 -0.56736135 4294901686
0.73468947 -0.51896125 -0.56736135 4294901686
0.73468947 -0.51896125 -0.56736135 4294901686
0.73468947 -0.51896125 -0.56736135 4294901686
0.73468947 -0.51896125 -0.56736135 4294901686
0.73468947 -0.51896125 -0.56736135 4294901686
0.73468947 -0.51896125 -0.56736135 4294901686
0.73468947 -0.51896125 -0.56736135 4294901686
0.73468947 -0.51896125 -0.56736135 4294901686
0.73468947 -0.51896125 -0.56736135 4294901686
0.73468947 -0.51896125 -0.56736135 4294901686
0.73468947 -0.51896125 -0.56736135 4294901686
0.73468947 -0.51896125 -0.56736135 4294901686
0.73468947 -0.51896125 -0.56736135 4294901686
0.73468947 -0.51896125 -0.56736135 4294901686
0.73468947 -0.51896125 -0.56736135 4294901686
0.73468947 -0.51896125 -0.56736135 4294901686
0.73468947 -0.51896125 -0.56736135 4294901686
0.73468947 -0.51896125 -0.56736135 4294901686
0.73468947 -0.51896125 -0.56736135 4294901686
0.73468947 -0.51896125 -0.56736135 4294901686
0.73468947 -0.51896125 -0.56736135 4294901686
0.73468947 -0.51896125 -0.56736135 4294901686
0.73468947 -0.51896125 -0.56736135 4294901686
0.73468947 -0.51896125 -0.56736135 4294901686
0.73468947 -0.51896125 -0.56736135 4294901686
0.73468947 -0.51896125 -0.56736135 4294901686
0.73468947 -0.51896125 -0.56736135 4294901686
0.73468947 -0.51896125 -0.56736135 4294901686
0.73468947 -0.51896125 -0.56736135 4294901686
0.73468947 -0.51896125 -0.56736135 4294901686
0.73468947 -0.51896125 -0.56736135 4294901686
0.73468947 -0.51896125 -0.56736135 4294901686
0.73468947 -0.51896125 -0.56736135 4294901686
0.73468947 -0.51896125 -0.56736135 4294901686
0.73468947 -0.51896125 -0.56736135 4294901686
0.73468947 -0.51896125 -0.56736135 4294901686
0.73468947 -0.51896125 -0.56736135 4294901686
0.73468947 -0.51896125 -0.56736135 4294901686
0.73468947 -0.51896125 -0.56736135 4294901686
0.73468947 -0.51896125 -0.56736135 4294901686
0.73468947 -0.51896125 -0.56736135 4294901686
0.59785485 0.43284708 -0.56976235 4286872195
0.73468947 -0.51896125 -0.56736135 4294901686
0.73468947 -0.51896125 -0.56736135 4294901686
0.73468947 -0.51896125 -0.56736135 4294901686
0.73468947 -0.51896125 -0.56736135 4294901686
0.73468947 -0.51896125 -0.56736135 4294901686
0.73468947 -0.51896125 -0.56736135 4294901686
0.73468947 -0.51896125 -0.56736135 4294901686
0.73468947 -0.51896125 -0.56736135 4294901686
0.73468947 -0.51896125 -0.56736135 4294901686
0.73468947 -0.51896125 -0.56736135 4294901686
0.73468947 -0.51896125 -0.56736135 4294901686
0.73468947 -0.51896125 -0.56736135 4294901686
0.73468947 -0.51896125 -0.56736135 4294901686
0.73468947 -0.51896125 -0.56736135 4294901686
0.73468947 -0.51896125 -0.56736135 4294901686
0.73468947 -0.51896125 -0.56736135 4294901686
0.73468947 -0.51896125 -0.56736135 4294901686
0.73468947 -0.51896125 -0.56736135 4294901686
0.73468947 -0.51896125 -0.56736135 4294901686
0.73468947 -0.51896125 -0.56736135 4294901686
0.73468947 -0.51896125 -0.56736135 4294901686
0.73468947 -0.51896125 -0.56736135 4294901686
0.73468947 -0.51896125 -0.56736135 4294901686
0.73468947 -0.51896125 -0.56736135 4294901686
0.64267564 0.43224937 0.18158144 4285648382
0.64393324 0.43250981 0.1827376 4285451515
0.64631468 0.43285981 0.18401533 4285582844
0.6465643 0.43291208 0.18335412 4285517308
0.64909315 0.4331142 0.18441968 4285517308
0.65026629 0.4330641 0.18390906 4285517308
0.65255392 0.43271935 0.18367001 4285844217
0.65356153 0.43274137 0.18981926 4285779710
0.65550166 0.43259525 0.19347289 4285714173
0.65840018 0.43166989 0.19194068 4285583101
0.65906662 0.43114758 0.19040097 4285517308
0.66059107 0.43155891 0.19547556 4285714687
0.66347086 0.42932451 0.17401832 4288717925
0.66426778 0.43030599 0.20010343 4285911548
0.66655737 0.42893025 0.19445443 4289374012
0.66886771 0.42919156 0.20801532 4286501109
0.66986358 0.4284296 0.20897694 4288524160
0.67101079 0.42789459 0.2135856 4288393602
0.67264354 0.42752931 0.21950023 4288262023
0.67513812 0.42615175 0.22731957 4288785514
0.67625558 0.4255347 0.23154131 4289309260
0.67873377 0.4254131 0.24144734 4289637170
0.67995703 0.42552409 -0.44886169 4294042482
0.68220401 0.42537275 -0.46167827 4294173821
0.68324983 0.4256264 -0.46641001 4294835341
0.68528998 0.42443207 0.26978704 4289899566
0.68826509 0.42539078 0.28887787 4289899313
0.68927985 0.42622256 0.29663527 4289703233
0.69109273 0.42713085 0.30632398 4289572428
0.69295549 0.42851338 0.31511727 4289048702
0.69506288 0.42776689 0.32074362 4290162741
0.69646597 0.42826793 0.32580519 4290097469
0.6981566 0.4275296 0.33048511 4290294061
0.7001549 0.43489906 0.38868877 4285516029
0.70228249 0.43314919 0.38612491 4286171121
0.70404559 0.43306965 0.3908034 4285712373
0.70521289 0.43182585 0.3914637 4286040563
0.70610273 0.4284645 0.38559341 4290558020
0.70853537 0.42778361 0.39400339 4290426681
0.71105027 0.42732778 -0.53623867 4294573920
0.71283841 0.42675152 -0.55485147 4294442691
0.71291047 0.4271079 -0.55092162 4294246276
0.7154488 0.42594311 0.40924227 4289901384
0.71696371 0.42621893 0.41253042 4289703231
0.71967202 0.42876333 0.42667082 4290557748
0.72089231 0.42882815 0.43190014 4290689073
0.72168046 0.42932054 0.43862274 4290820400
0.72394907 0.4279739 0.44764227 4288058927
0.72646344 0.42653745 0.45189452 4283257346
0.72724676 0.42590317 0.44777632 4280827978
0.728971 0.42565927 0.51469231 4291017794
0.73171729 0.42570499 0.52161103 4291083580
0.73310924 0.42609957 0.52620208 4291215169
0.73518258 0.42712417 0.53401703 4291412296
0.73656893 0.42478502 0.53160155 4291215426
0.73864639 0.42639667 0.54183561 4291346756
0.73971802 0.42663234 0.54595667 4291346499
0.74133033 0.42629087 0.55062586 4291281218
0.74387777 0.42629114 0.55996412 4291215675
0.74481714 0.42655131 0.56403512 4291281216
0.7467736 0.42633367 0.57084411 4291281471
0.74910456 0.42697987 0.58017755 4291347001
0.7497344 0.42651504 0.58177096 4291281464
0.75220853 0.42681307 0.5905816 4291281727
0.75398624 0.42676961 0.59599161 4291478337
0.75513113 0.42663881 0.59950525 4291478594
0.75738531 0.42670149 0.60608739 4291347523
0.75872028 0.42681995 0.61013997 4291479104
0.7610116 0.42633718 0.61571211 4291216207
0.76273441 0.42607573 0.6200341 4291216975
0.76461822 0.42622897 0.62568158 4287796547
0.76667064 0.42650127 0.63268977 4288389702
0.76794821 0.42718568 0.66193151 4292922437
0.76885259 0.42517686 0.6506561 4286809393
0.77086729 0.40612319 0.63868701 4279845983
0.77276474 0.3714059 0.64263028 4280634726
0.77411479 0.35927287 0.64668185 4280504939
0.77709156 0.37743157 -0.56734496 4285230954
0.77884763 0.34497175 0.64728409 4279648855
0.78013134 0.38773659 -0.56975019 4285362538
0.78173298 0.35319459 0.64827758 4280307560
0.78313899 0.077541463 0.60853112 4279315003
0.78540885 0.34882805 0.65048766 4279978593
0.78640497 0.063039646 0.60751617 4283195750
0.78874141 0.3501963 0.65303111 4280372066
0.79110414 0.34481767 0.65394932 4280108376
0.79218954 0.34821701 0.65557712 4280174688
0.79368705 0.34468639 0.65650511 4280437085
0.79554993 -0.18494104 0.61089808 4279969593
0.79740316 0.34771392 0.66097462 4280174686
0.7994675 -0.30781588 0.6054399 4288386933
0.80148304 -0.31124368 0.60960168 4282993229
0.80247158 -0.3148914 0.60764545 4288846450
0.80524355 -0.31972969 0.62201667 4279578433
0.80563682 -0.31806681 0.61636645 4279905857
0.80770469 -0.32052374 0.618967 4279840835
0.80929315 -0.32827047 0.62218934 4279774274
0.73468947 -0.51896125 -0.56736135 4294901686
0.73468947 -0.51896125 -0.56736135 4294901686
0.73468947 -0.51896125 -0.56736135 4294901686
0.67493755 -0.51978374 -0.090448506 4294901633
0.67486215 -0.5135408 -0.096404262 4294901626
0.67482221 -0.51021421 -0.096651591 4285949765
0.67489868 -0.50690597 -0.096592106 4283388235
0.67501777 -0.50309044 -0.10099395 4283453266
0.6752671 -0.49635503 -0.096898653 4283387473
0.67556006 -0.49163219 -0.095132232 4283387473
0.675731 -0.48627555 -0.096257031 4283124817
0.676108 -0.48161122 -0.096596852 4283190608
0.67630804 -0.47944242 -0.096276507 4283256912
0.67676198 -0.47462294 -0.13375913 4283979607
0.67734665 -0.46789181 -0.12761091 4284044370
0.67769665 -0.4645915 -0.12647435 4283978324
0.67820406 -0.457948 -0.12746055 4283520851
0.67515814 -0.45276931 -0.031343423 4288059292
0.67407155 -0.4473021 -0.028445629 4290623932
0.6719023 -0.4417724 -0.03155411 4286152838
0.66831857 -0.43732277 -0.029361792 4287794577
0.67027646 -0.43590137 -0.028942488 4286874503
0.67788267 -0.4273763 -0.14827445 4284243293
0.67772478 -0.42261323 -0.14223336 4284046424
0.67769855 -0.41851327 -0.14716534 4284112219
0.67773157 -0.4130947 -0.14258215 4283915095
0.67689067 -0.40798426 -0.28270769 4284770406
0.67683893 -0.4077175 -0.28697428 4284836711
0.67561471 -0.3985382 -0.070319586 4283191378
0.67527294 -0.39761332 -0.072247386 4283257170
0.67467308 -0.3926608 -0.072315902 4283322960
0.67415982 -0.3868266 -0.072550647 4283322705
0.67315108 -0.37983575 -0.05330373 4289835700
0.67229295 -0.37668517 -0.054557934 4287005319
0.67068917 -0.37000173 -0.05642223 4284111713
0.66825658 -0.36485928 -0.047136657 4292007124
0.66657317 -0.36199287 -0.046483699 4291415245
0.66648197 -0.35971668 -0.046270344 4290363841
0.67050856 -0.35461882 -0.047408625 4286416013
0.67208695 -0.35018566 -0.047190592 4283718234
0.67181432 -0.34111038 -0.23290551 4284573282
0.67054349 -0.33757141 -0.22215116 4284770403
0.66934216 -0.33492103 -0.21946836 4284835942
0.66901612 -0.32794419 -0.23526326 4284508520
0.66880149 -0.32356575 -0.23159164 4284639078
0.66870165 -0.31855902 -0.23556815 4284573286
0.66875631 -0.31280813 -0.23604217 4284639078
0.66890407 -0.30799979 -0.23641133 4284639078
0.66891122 -0.30676889 -0.23648943 4284704357
0.66939449 -0.29844114 -0.12959112 4283979091
0.66909379 -0.294254 -0.13004717 4283586129
0.66894901 -0.29271123 -0.12858661 4283520593
0.66864574 -0.28567362 -0.12230507 4283585358
0.66856426 -0.28117892 -0.12597966 4283323474
0.66854888 -0.27646175 -0.12241952 4283454032
0.66852576 -0.27280205 -0.11904965 4283519567
0.6685816 -0.26687378 -0.12234808 4283454291
0.66861236 -0.26405004 -0.12289002 4283322961
0.66868591 -0.25945345 -0.12301825 4283388498
0.66857463 -0.25282937 -0.1382098 4283651924
0.66806418 -0.24809785 -0.1420707 4283783510
0.66739124 -0.2407902 -0.14269048 4283717973
0.6671114 -0.23657098 -0.14358096 4283783255
0.66693074 -0.2311475 -0.13919826 4283586646
0.66683596 -0.22740242 -0.13833751 4283455060
0.66668153 -0.22408681 -0.13991328 4283717462
0.66654831 -0.21857822 -0.14041738 4283782742
0.6665352 -0.21369211 -0.13957873 4283914070
0.66666925 -0.20901534 -0.13965921 4283914583
0.6670053 -0.20446445 -0.13917409 4283586388
0.66722959 -0.20007943 -0.13930847 4283586130
0.66741186 -0.19529301 -0.13855018 4283717204
0.66774678 -0.19099855 -0.13786677 4283652183
0.66801637 -0.18611263 -0.13323826 4283389010
0.66823131 -0.18194778 -0.13259429 4283323728
0.66832888 -0.17453325 -0.13279244 4283586127
0.66833776 -0.1728427 -0.1356461 4283323984
0.66826028 -0.16806215 -0.13205381 4283389005
0.66792232 -0.16276774 -0.13619362 4283585615
0.66768801 -0.15763104 -0.13633761 4283585362
0.66755635 -0.15282077 -0.13661502 4283650896
0.66736478 -0.14819467 -0.07821662 4282862409
0.66695303 -0.14068291 -0.076684095 4282992969
0.66671795 -0.13786022 -0.083613291 4282927689
0.66646093 -0.13123336 -0.083143383 4283058246
0.66628641 -0.12726486 -0.084071435 4283058757
0.66610903 -0.12185042 -0.088933825 4283190344
0.66596437 -0.11700452 -0.088662952 4283190600
0.66581255 -0.11119326 -0.088606715 4283256649
0.66580361 -0.10625514 -0.087790288 4283191115
0.66588974 -0.10620073 -0.088170663 4282927946
0.66585606 -0.10142557 -0.087318644 4283322187
0.66577429 -0.095999561 -0.092181824 4283256394
0.66546839 -0.091260158 -0.092685208 4283387466
0.46442512 -0.083883703 0.10874879 4278599270
0.66453362 -0.077817112 -0.097709432 4283321413
0.66429073 -0.075426996 -0.10124442 4283255879
0.66371381 -0.069468386 -0.095833026 4283453768
0.66365141 -0.066398077 -0.09597519 4283256904
0.66348571 -0.062247705 -0.095350645 4283255880
0.66344732 -0.053804513 -0.097532682 4282927941
0.66353661 -0.053164467 -0.10189574 4282993733
0.66359258 -0.045756768 -0.095207982 4283190342
0.66362703 -0.043247052 -0.097844817 4283058755
0.66384536 -0.038436256 -0.092710517 4282862404
0.66394979 -0.029778134 -0.088277906 4282993222
0.66390926 -0.029269479 -0.094494209 4282992708
0.66365492 -0.023681054 -0.09437152 4282992965
0.66353256 -0.018672016 -0.089347601 4282796612
0.66349119 -0.012451421 -0.076782838 4282796098
0.66334397 -0.0070122266 -0.089181118 4282730308
0.66325408 -0.0051496369 -0.088771731 4283123779
0.66322398 0.0025498178 -0.081927724 4282992707
0.66298014 0.0081672594 -0.14293022 4282795840
0.66227657 0.013308857 -0.14308996 4282992960
0.66197199 0.017753748 -0.14428763 4282927170
0.66169983 0.02260226 -0.14772572 4282730560
0.66181111 0.026952142 -0.14813064 4282861890
0.6618154 0.030809775 -0.15141419 4282993218
0.66200024 0.036456224 -0.15207064 4283254849
0.66140354 0.041574124 -0.085470647 4282993474
0.66124678 0.046778291 -0.075916931 4282796614
0.66056722 0.049057417 -0.087041698 4283124548
0.65991163 0.056347895 -0.088776894 4282927429
0.65967131 0.059793353 -0.087177061 4282993224
0.65943509 0.06460952 -0.094717287 4282927170
0.65926504 0.069108531 -0.09351784 4282927171
0.65896595 0.075696014 -0.096624598 4282927171
0.65898913 0.076595925 -0.097616129 4283124035
0.65885037 0.081183404 -0.1018712 4282992963
0.65887785 0.086197741 -0.10223785 4282664256
0.65905821 0.090920523 -0.10171728 4282467132
0.65539694 0.098291293 0.53300047 4280108388
0.64579713 0.10415266 0.52651078 4279847279
0.64597738 0.10451589 0.52668005 4281367713
0.64795548 0.11201016 0.52844405 4280439423
0.65577453 0.11487134 0.53351051 4282089131
0.65082175 0.11982576 0.53082943 4282872465
0.65598774 0.12376789 0.53443676 4283669444
0.65899402 0.1325146 -0.086936891 4282138168
0.65879846 0.13566385 -0.081689417 4282204218
0.65834016 0.1414146 -0.077310979 4282270274
0.65765738 0.14592251 -0.081401043 4282204737
0.6570977 0.1515673 -0.08574228 4282532417
0.65655392 0.15626901 -0.085818633 4282466625
0.65600878 0.16157772 -0.082995817 4282402115
0.65593237 0.16263114 -0.080319211 4282270786
0.65544337 0.17123491 -0.075824894 4282335296
0.65520728 0.17230384 -0.085219666 4282073920
0.65309578 0.17727835 0.53543222 4282017419
0.65523928 0.1817168 -0.086315252 4281613881
0.65545696 0.18625766 -0.083059087 4281810236
0.65565383 0.19074838 -0.082920514 4281810237
0.65559626 0.19728924 -0.15428843 4282861892
0.65541887 0.20252548 -0.15456426 4282730818
0.65526903 0.20772007 -0.15470189 4282599746
0.65501642 0.21300179 -0.15426177 4282402624
0.65470731 0.21936868 -0.14310785 4282205508
0.65406108 0.22364752 -0.10835131 4281809467
0.65361637 0.22806329 -0.10347496 4281874742
0.6528132 0.23343767 -0.10323393 4281808437
0.65215081 0.23815393 -0.10245235 4281742902
0.65168369 0.24331847 -0.1027792 4281677109
0.65125418 0.24759024 -0.10276655 4281611831
0.6509313 0.25283819 -0.10317843 4281611575
0.65096092 0.25521299 -0.10152993 4281611316
0.65077484 0.25829494 -0.10670941 4281545780
0.65091628 0.26378167 -0.1021568 4281611060
0.65093803 0.26790276 -0.1026543 4281348144
0.65111375 0.27344808 -0.10223184 4281086511
0.65087146 0.28046027 -0.10308459 4281545523
0.65075427 0.28576007 -0.10357454 4281282355
0.65083617 0.287525 -0.10149766 4281676337
0.65079826 0.29229218 -0.10208082 4281610801
0.65036893 0.3000769 -0.10212611 4281348395
0.65018165 0.30237144 -0.099842183 4281217324
0.64968717 0.31017143 -0.10116118 4281545519
0.64963663 0.3113721 -0.10397463 4281544748
0.64985496 0.31763688 -0.10413945 4281545774
0.64963377 0.32340446 -0.11719808 4281742386
0.64945632 0.32820651 -0.11589039 4281873716
0.6495353 0.33244047 -0.11664943 4281611311
0.64950895 0.33739501 -0.12556185 4281546289
0.64940441 0.34255046 -0.12794162 4281939505
0.64950806 0.34517947 -0.13106047 4281676333
0.64969403 0.35058263 -0.1296804 4282005810
0.65042782 0.35481703 -0.13354877 4281808686
0.651335 0.35968003 -0.12884285 4281546290
0.65225446 0.36514214 -0.13213937 4281611827
0.6525628 0.36848655 -0.13709399 4282136112
0.65177745 0.37731323 -0.20154943 4283124805
0.65094316 0.38167074 -0.19647504 4282927427
0.64966786 0.38643238 -0.20412956 4282993474
0.64898288 0.39142638 -0.2015796 4283386180
0.6488089 0.3960796 -0.1931816 4283057471
0.64864516 0.39817366 -0.20063995 4283779140
0.64916158 0.40177611 -0.20633948 4283845696
0.65053505 0.40872371 -0.1975261 4284698679
0.65096813 0.41098267 -0.20342503 4284830527
0.65224373 0.41885197 -0.10341264 4294704971
0.65234381 0.42287928 -0.089471586 4294442976
0.65359569 0.42566207 -0.023151387 4294901753
0.59785479 0.43284708 -0.56976235 4287464838
0.7001549 0.43489906 0.38868877 4285516029
0.78317541 -0.52190107 0.64530832 4293722104
0.78232121 -0.51611149 0.64544368 4293849536
0.78155613 -0.51229298 0.64433527 4292272563
0.78014326 -0.50664186 0.64525622 4291682478
0.77903444 -0.50333613 0.64312941 4291813282
0.77706444 -0.49804643 0.64191204 4291943325
0.7751137 -0.493779 0.63937336 4291746200
0.77722877 -0.48471314 0.50852203 4278790728
0.78101701 -0.47982448 0.52053779 4278201677
0.78297001 -0.47573447 0.52867132 4286025366
0.7851848 -0.47053298 0.5335266 4289046159
0.78671837 -0.46562633 0.5362187 4290030733
0.78772146 -0.46094617 0.52506006 4290424465
0.78813183 -0.45815277 0.53400981 4290359185
0.78873807 -0.45109758 0.53030807 4290424977
0.78897744 -0.44721282 0.54056209 4290424465
0.78940028 -0.44233689 0.53995442 4290424463
0.789783 -0.43862885 0.54388517 4290490256
0.7906903 -0.43313354 0.5495975 4290424978
0.79171383 -0.42757824 0.55461705 4290424980
0.79294258 -0.42254454 0.55477232 4290556566
0.7933557 -0.4203755 0.55224842 4290622359
0.79473567 -0.41300339 0.55430001 4290622358
0.79485875 -0.41096887 0.54978079 4290622359
0.79594845 -0.40327051 0.54812634 4290687635
0.79670972 -0.39930618 0.55140591 4290753428
0.79753804 -0.3942723 0.56068587 4290622355
0.79813886 -0.38883057 0.55809695 4290688150
0.79880404 -0.38618836 0.55581784 4290688148
0.79932219 -0.38142827 0.55008894 4290622355
0.80074489 -0.37542465 0.62425816 4279053898
0.80108601 -0.37137818 0.62345749 4279053897
0.80191022 -0.3654843 0.62142962 4278988104
0.80272239 -0.36231732 0.61739278 4278987850
0.80358601 -0.35813722 0.61844522 4278987850
0.80438727 -0.35471508 0.61878246 4278987850
0.80344397 -0.34909621 0.61927766 4278988104
0.80649853 -0.34107602 0.6192553 4279775555
0.80935639 -0.33633876 0.62169981 4279971908
0.80988282 -0.33233657 0.62363493 4279577921
0.81023252 -0.32934663 0.62322706 4279708738
0.80892205 -0.32614893 0.62107807 4279840326
0.80770469 -0.32052374 0.618967 4279840835
0.80287755 -0.31679597 0.62057531 4279512384
0.80148304 -0.31124368 0.60960168 4282993229
0.79823083 -0.30628499 0.57363373 4291014527
0.79822946 -0.30150634 0.57322627 4291014270
0.79812115 -0.29681918 0.56795365 4291014522
0.798154 -0.29137939 0.56702071 4291014524
0.79816109 -0.28807855 0.57051289 4291014524
0.79806811 -0.28176454 0.56944799 4291079804
0.79805791 -0.2784754 0.56852776 4291211133
0.79792315 -0.27325967 0.57065159 4291145595
0.79780352 -0.26903608 0.57006139 4291145597
0.79747486 -0.2640847 0.57487124 4291079803
0.79721928 -0.25737891 0.5674848 4291211387
0.7968595 -0.25456896 0.57158148 4290817924
0.79633397 -0.24958304 0.56715703 4290818699
0.79600585 -0.24426141 0.57047015 4290752645
0.79573917 -0.23902611 0.57558733 4290620546
0.79555279 -0.23354332 0.57559216 4290620802
0.79533559 -0.22737196 0.57579166 4290751871
0.79534674 -0.22583927 0.57655042 4290095752
0.7952323 -0.2166772 0.58098769 4290357634
0.79522246 -0.21209402 0.59013182 4290226300
0.79526561 -0.21115236 0.58204645 4290226563
0.79513478 -0.20280387 0.58229113 4290358150
0.79527283 -0.19878826 0.61061853 4281084465
0.79528189 -0.19314651 0.61138314 4279838520
0.79520208 -0.1888251 0.61133581 4279642169
0.79563755 -0.18640789 0.61129576 4280100663
0.79395938 -0.18047345 0.6121316 4279445302
0.79345757 -0.17393041 0.60842997 4279446075
0.79301816 -0.17047705 0.60783869 4279446075
0.79217356 -0.16427301 0.60434008 4285558367
0.79147428 -0.16237761 0.601412 4289174645
0.79144782 -0.15790968 0.6604389 4291939672
0.79175866 -0.14937042 0.66449881 4292070218
0.79231238 -0.14548627 0.65918618 4292004161
0.7926324 -0.14201967 0.65946114 4291872586
0.79264086 -0.13862042 0.65764976 4289571400
0.79267418 -0.13399161 0.66009408 4291938896
0.79224426 -0.12801045 0.66031611 4291873100
0.79173911 -0.12519179 0.65313399 4280037693
0.79126185 -0.11920652 0.66007435 4291807050
0.79072553 -0.11320381 0.65880531 4291019080
0.79013783 -0.10987854 0.65765184 4291018829
0.7897163 -0.10577283 0.66180182 4292070227
0.78940856 -0.097146958 0.60081148 4289503093
0.78998727 -0.091993473 0.60181451 4289503603
0.79110432 -0.088158689 0.60961133 4279642164
0.79233396 -0.082796387 0.6149478 4279248436
0.79320163 -0.078841239 0.61870259 4279247920
0.79291832 -0.07512518 0.6183939 4279182128
0.79090863 -0.069220327 0.6161899 4279247407
0.7894699 -0.063561335 0.61622661 4279312942
0.78882968 -0.058878917 0.60754502 4279577404
0.78853703 -0.055173229 0.60748655 4279511868
0.78768033 -0.053564038 0.61091775 4279182901
0.78709316 -0.048443533 0.60621685 4279906107
0.78680205 -0.043928631 0.60682631 4279708729
0.78836447 -0.036852606 0.60825449 4280563521
0.78911203 -0.032532118 0.61110419 4279512383
0.79022366 -0.027615409 0.61271942 4279381055
0.79004586 -0.023437018 0.61206317 4279643196
0.78958499 -0.018557325 0.6115191 4279708733
0.78900933 -0.01477381 0.61081481 4279906624
0.7867766 -0.0092937937 0.60426867 4283258197
0.78544372 -0.002573804 0.59978926 4288913275
0.78443074 0.0027845369 0.59549689 4290029950
0.78412634 0.0075236992 0.59527588 4290029950
0.78380477 0.012150756 0.59512597 4289702018
0.78342038 0.018000847 0.59170902 4290555268
0.78331244 0.022894194 0.58698666 4290950280
0.78387737 0.027053952 0.60012931 4288190847
0.7843731 0.031418432 0.59897757 4288847998
0.78599083 0.037258074 0.60433388 4285100906
0.78457785 0.041461859 0.60875541 4279380537
0.78626573 0.042737659 0.60871404 4280237909
0.78784019 0.047143821 0.60686862 4288191369
0.78813779 0.051823769 0.60826564 4287796361
0.78804404 0.056671254 0.61185235 4280042843
0.7870425 0.062505968 0.61245346 4279051833
0.78614545 0.066509284 0.61237019 4279117112
0.78434736 0.071801312 0.61120862 4279117364
0.78313899 0.077541463 0.60853112 4279315003
0.7819047 0.081411816 0.60786587 4279248437
0.78030449 0.086397149 0.60427773 4280106835
0.77954459 0.090123609 0.60832214 4279313975
0.7781716 0.097485282 0.57342637 4290821288
0.77816314 0.10356479 0.53303379 4291345567
0.77808291 0.10779543 0.54798776 4291085754
0.77801722 0.11329273 0.55209881 4291216571
0.77798122 0.11633493 0.55278838 4291282364
0.77791297 0.12199195 0.54860175 4291086012
0.77787429 0.12615776 0.54850829 4291086013
0.77772808 0.13134877 0.55351424 4291216829
0.77762532 0.13613085 0.55382878 4291216829
0.77747619 0.14069025 0.55037636 4291216829
0.77723384 0.1467264 0.55319893 4291151549
0.77678895 0.14879905 0.55652201 4291346852
0.77685505 0.15292521 0.55398911 4291281840
0.77638578 0.15838677 0.55260307 4291217342
0.77588785 0.16397101 0.54995924 4291217342
0.77556211 0.1684954 0.55378163 4291217340
0.77495658 0.17466097 0.55390602 4291283135
0.77452785 0.17872563 0.55086231 4291217342
0.77435875 0.18211864 0.56009084 4291151547
0.77394676 0.18668522 0.55596513 4291217340
0.77369899 0.19106269 0.55656779 4291217341
0.77325869 0.19551389 0.55882961 4291085754
0.77264482 0.20033447 0.55602682 4291151548
0.77193511 0.20509279 0.55276912 4291282880
0.77127749 0.21009186 0.54952657 4291283136
0.77129972 0.2167822 0.59617108 4288980359
0.77071679 0.22278126 0.59383535 4289307781
0.77107459 0.22484131 0.59424716 4289241986
0.77096617 0.23197532 0.63786459 4291229151
0.76981544 0.23675381 0.53637356 4291346861
0.76967156 0.23901679 0.53439027 4291477153
0.76877391 0.24771486 0.53905636 4291347378
0.76891595 0.2484241 0.53610325 4291411360
0.76821178 0.25344744 0.53771454 4291215531
0.76783812 0.25857764 0.53762561 4291216048
0.76774144 0.26317006 0.54317427 4291151547
0.76762265 0.26874334 0.54399896 4291151290
0.76758707 0.27307138 0.55357718 4291216055
0.76774973 0.27874306 0.55300319 4291216311
0.76805264 0.28354147 0.55295628 4291216311
0.76866829 0.28826225 0.5581544 4291150518
0.76901454 0.29575336 0.55441672 4291216570
0.76913619 0.29764611 0.55763763 4291084983
0.76942104 0.30133367 0.55484885 4291150776
0.76995701 0.30733493 0.56168854 4291019189
0.77049547 0.31462249 0.56438655 4290821808
0.77139294 0.31779137 0.64198989 4279381052
0.77160758 0.32357183 0.64315736 4279119165
0.77264464 0.32871616 0.64460647 4279250752
0.77185351 0.33282417 0.57458526 4290229665
0.77678728 0.33882326 0.64712042 4279252294
0.77713627 0.34062338 0.64717829 4279384652
0.79740316 0.34771392 0.66097462 4280174686
0.78874141 0.3501963 0.65303111 4280372066
0.81432921 0.35818622 0.67793399 4280894804
0.77411479 0.35927287 0.64668185 4280504939
0.773224 0.36759621 0.64589679 4279976021
0.77598214 0.36845133 -0.56700969 4284243040
0.77974236 0.37458345 -0.5689289 4284637798
0.77978122 0.38096571 -0.5690859 4285099368
0.78034317 0.3833974 -0.56936365 4285362540
0.78013134 0.38773659 -0.56975019 4285362538
0.778745 0.39181694 -0.57070184 4285296491
0.77485096 0.40134194 -0.57242376 4284769380
0.77116895 0.40178153 0.63453066 4279912547
0.77056295 0.40939841 0.64255977 4280173661
0.77018505 0.41130632 0.63895369 4279911774
0.76951081 0.41680741 0.6402781 4280173401
0.76895225 0.42278361 0.64728814 4281485652
0.76858681 0.42534325 0.65364021 4291807302
0.70521289 0.43182585 0.3914637 4286040563
0.73468947 -0.51896125 -0.56736135 4294901686
