# .PCD v0.7 - Point Cloud Data file format
VERSION 0.7
FIELDS x y z rgb
SIZE 4 4 4 4
TYPE F F F U
COUNT 1 1 1 1
WIDTH 1068
HEIGHT 1
VIEWPOINT 0 0 0 1 0 0 0
POINTS 1068
DATA ascii
0.71513432 -0.527147 -0.44307438 4289899632
0.67643994 0.41727084 -0.44263297 4292331819
0.67994428 0.43671745 -0.44087663 4294895221
0.68049681 0.43644071 -0.44304389 4294173823
0.70971447 -0.53299201 -0.43773729 4294901639
0.71035087 -0.53203094 -0.43671012 4294901637
0.71144015 -0.52742565 -0.43705246 4293058178
0.67452216 0.41626778 -0.43566763 4292069178
0.67563707 0.41816896 -0.43849254 4294044220
0.68098956 0.4361079 -0.43754056 4294900311
0.70486587 -0.53273892 -0.43027246 4294967176
0.70706785 -0.53167576 -0.43249404 4294901638
0.70824188 -0.52280587 -0.43120638 4289767799
0.67490232 0.41683236 -0.4328745 4292992035
0.6756534 0.41717929 -0.43242437 4291148345
0.68243527 0.43713877 -0.43382087 4294901314
0.70456141 -0.53138 -0.42615017 4294967182
0.70556116 -0.53123426 -0.42799678 4294967177
0.70720315 -0.5227893 -0.42702958 4290359412
0.67595208 0.41819128 -0.42786747 4292661577
0.68046236 0.4332099 -0.42921764 4294836024
0.70532846 -0.53356981 -0.42253631 4294901645
0.70415187 -0.52269185 -0.42086756 4293123705
0.67622012 0.41785797 -0.42283478 4290752576
0.67616814 0.43118346 -0.42122111 4294770503
0.7032975 -0.53210676 -0.41648206 4294967179
0.70357233 -0.52267241 -0.41776356 4292992119
0.67622483 0.4177255 -0.41769221 4290028095
0.67463768 0.43249559 -0.41592503 4294835560
0.67590815 0.43216708 -0.41888329 4294835797
0.70165265 -0.53146678 -0.412054 4294901639
0.7015717 -0.52194607 -0.41266334 4293649798
0.67484891 0.4181436 -0.41016182 4291605825
0.67433208 0.43276212 -0.41256338 4294835306
0.67530644 0.43124986 -0.41466367 4294836052
0.69944924 -0.53309518 -0.40618813 4294901650
0.70052749 -0.53243732 -0.40769541 4294967176
0.69924504 -0.52292961 -0.40607682 4294901386
0.70140553 -0.52245736 -0.40946639 4293847171
0.67456418 0.41815379 -0.40599707 4291146291
0.6741206 0.43228897 -0.40716115 4294573675
0.69751602 -0.53206766 -0.40156507 4294901650
0.69911814 -0.52267128 -0.40266496 4294835344
0.67465842 0.41810507 -0.40254661 4290291757
0.67330891 0.43275207 -0.40240711 4294377093
0.69810683 -0.53194469 -0.39748865 4294901645
0.69804627 -0.52248764 -0.39755526 4294966932
0.67285711 0.41770008 -0.39706537 4290752301
0.67311549 0.43252039 -0.39797038 4294442615
0.69854325 -0.53168243 -0.39191064 4294901645
0.69749123 -0.52228087 -0.39230397 4294835332
0.66915381 0.41734728 -0.39121085 4293781572
0.67022949 0.41900682 -0.39281553 4294966601
0.67242748 0.43247673 -0.39235494 4294442613
0.69933701 -0.53076118 -0.38748059 4294967182
0.7011705 -0.53277588 -0.38703147 4294901643
0.69852805 -0.52199119 -0.38775724 4293123968
0.66908908 0.41768521 -0.38767207 4294045505
0.67252737 0.43271378 -0.38768476 4294442861
0.70137113 -0.53183025 -0.38210303 4294901637
0.69962364 -0.52190292 -0.38340166 4290489978
0.70052284 -0.52277058 -0.38237435 4291018098
0.66826671 0.41776556 -0.38248307 4294702923
0.67095572 0.43230891 -0.3820242 4294639218
0.69962925 -0.53284138 -0.3763634 4294901640
0.70061857 -0.53185844 -0.37809438 4294901638
0.6983965 -0.52192491 -0.37561068 4290624111
0.70061117 -0.52326334 -0.37875104 4291478904
0.6669448 0.41711301 -0.37731585 4294440263
0.66995245 0.43379855 -0.37778965 4294966628
0.67074144 0.4324207 -0.37823626 4294901342
0.66964549 0.43667406 -0.37729555 4291344786
0.6979714 -0.5323543 -0.37230465 4294836099
0.69812059 -0.52284002 -0.37225842 4292663163
0.66660023 0.41777477 -0.37253165 4294506568
0.66848916 0.43245026 -0.37255859 4294702174
0.69258946 -0.53241605 -0.36604893 4294967181
0.69648296 -0.53246289 -0.36933649 4294901634
0.69701755 -0.52195489 -0.36832792 4291873916
0.66442949 0.41500115 -0.36615539 4294041699
0.66590691 0.41786352 -0.36795822 4294703177
0.66421854 0.43235061 -0.36607188 4292659574
0.66593355 0.43212366 -0.36738789 4294109288
0.69144261 -0.53211242 -0.36245573 4294967187
0.69553089 -0.52312672 -0.36474076 4294901386
0.69355994 -0.51815295 -0.36175439 4289635692
0.66427702 0.41749564 -0.36294127 4294836034
0.66526985 0.41795725 -0.36394769 4294967111
0.6627636 0.43242249 -0.36188698 4292001401
0.68948019 -0.53107393 -0.35616225 4294967188
0.69093138 -0.5317716 -0.35915032 4294967187
0.68989515 -0.51786137 -0.35556608 4291414112
0.69090623 -0.51755983 -0.35791463 4291347580
0.66370648 0.41737667 -0.35764602 4294770245
0.66177535 0.43235329 -0.35783103 4291475838
0.68976688 -0.53094375 -0.35400864 4294967183
0.69047344 -0.53235555 -0.35221639 4294901648
0.68891734 -0.51744986 -0.35208759 4293847181
0.66139913 0.41279161 -0.35212708 4289698864
0.66093642 0.43162733 -0.35190025 4292398203
0.68989378 -0.53181446 -0.34714565 4294900884
0.69033647 -0.53230751 -0.34745207 4294967185
0.68885827 -0.51723486 -0.34698638 4292267648
0.66364199 0.41754821 -0.34745076 4294769480
0.66502303 0.41802666 -0.3453126 4294967126
0.66323441 0.43261707 -0.3484624 4293582720
0.6656602 0.43733084 -0.34643289 4289764496
0.69039673 -0.53188813 -0.34194717 4294901648
0.68865287 -0.5172559 -0.34195977 4291346548
0.66400206 0.41622645 -0.34243637 4291082774
0.66780305 0.43695629 -0.34367269 4293449871
0.67000198 0.43691638 -0.34060252 4294967146
0.69143802 -0.53252447 -0.33790258 4294901642
0.68893045 -0.51757658 -0.33720192 4291212912
0.66457325 0.41663748 -0.33711219 4290884143
0.66959977 0.43644214 -0.3389647 4294967140
0.67024332 0.43655097 -0.33714178 4294967132
0.6895684 -0.53112757 -0.33079401 4294836106
0.69065011 -0.53153765 -0.33350247 4294901639
0.68795371 -0.51667243 -0.33226568 4290162030
0.66487819 0.41775098 -0.33397394 4293716284
0.66584748 0.41747311 -0.33217576 4289634859
0.66875523 0.4361124 -0.33056664 4294900590
0.67041034 0.43660882 -0.33368874 4294835303
0.68955088 -0.5302906 -0.32553065 4294901648
0.6911658 -0.53245354 -0.32767224 4294901646
0.6866976 -0.51759255 -0.32702017 4293255297
0.66474664 0.41698486 -0.32653502 4289042980
0.6654709 0.41773957 -0.32726166 4290490172
0.66834128 0.4361977 -0.32711831 4294966636
0.69095373 -0.53281897 -0.32193756 4294967186
0.68645549 -0.51800001 -0.32189879 4293518216
0.66428041 0.41721922 -0.32273027 4289699361
0.66595489 0.43277091 -0.32239497 4294966874
0.69100285 -0.5332132 -0.31758976 4294901651
0.68626118 -0.51782542 -0.31748369 4292860540
0.66321284 0.41736481 -0.31743473 4291015985
0.6647352 0.43697256 -0.31725687 4292330378
0.66517323 0.43582097 -0.31782293 4294570355
0.68822438 -0.53215569 -0.31202492 4294967188
0.6856963 -0.51805598 -0.31293264 4292926587
0.66341174 0.41778708 -0.31203836 4290687031
0.66605771 0.43677029 -0.31296772 4294306168
0.68761635 -0.53254873 -0.30747476 4294901644
0.68369269 -0.51710111 -0.30732265 4293190015
0.66212112 0.4176293 -0.30721125 4291411516
0.66715103 0.43646455 -0.30812168 4294900855
0.68679482 -0.53250527 -0.30282336 4294901649
0.68368995 -0.51733905 -0.30224121 4293914244
0.66157359 0.41732049 -0.30259067 4290950188
0.66624296 0.43651807 -0.30259678 4294569573
0.68659151 -0.53236753 -0.2980547 4294901388
0.6840108 -0.51692283 -0.29759821 4291938428
0.6614399 0.41791561 -0.29812616 4292004398
0.66409385 0.43674284 -0.29539803 4293316929
0.66565889 0.43661195 -0.29856542 4294964069
0.68562096 -0.53096402 -0.29301146 4294901643
0.68463898 -0.51692969 -0.2935867 4290621553
0.68527269 -0.51728636 -0.29133663 4290950005
0.66103244 0.41741467 -0.29231229 4290555939
0.66385603 0.43656698 -0.29292107 4293252940
0.68382901 -0.5324049 -0.28684837 4292005728
0.68550646 -0.531964 -0.28797051 4294901132
0.68648434 -0.5175789 -0.28767845 4289371498
0.66101199 0.41727507 -0.2874895 4289238572
0.6611917 0.4359926 -0.28816497 4292724579
0.68355417 -0.53157848 -0.28299022 4293716853
0.68733883 -0.52261025 -0.28256655 4294901135
0.6613127 0.4177103 -0.28288361 4289239084
0.65970206 0.43384787 -0.28238899 4294962780
0.68187958 -0.53128308 -0.27795005 4292530532
0.68839842 -0.52261984 -0.27748564 4293387124
0.66054708 0.41814384 -0.27748799 4290226734
0.65921688 0.43307796 -0.27656841 4294965850
0.6603682 0.43196866 -0.2782833 4294901076
0.68086272 -0.5315361 -0.27417544 4289764412
0.67950177 -0.52892286 -0.2708278 4294439045
0.6874575 -0.52242875 -0.27230471 4293585016
0.65950841 0.41735303 -0.27231151 4289567789
0.65859807 0.4327884 -0.27261144 4294305878
0.68069863 -0.53094172 -0.26618129 4290754884
0.67998052 -0.52973038 -0.26896921 4294966665
0.68681729 -0.52257258 -0.2679182 4294572164
0.6601283 0.42021668 -0.26580951 4294967144
0.65868479 0.43239719 -0.26800489 4294899806
0.68153751 -0.53082281 -0.26401293 4293717111
0.6859324 -0.5219937 -0.26364169 4294901382
0.65978098 0.41912779 -0.26430687 4292070460
0.660393 0.42172706 -0.2614108 4294836041
0.65894109 0.4327971 -0.26303405 4294507654
0.66012114 0.43271106 -0.26000971 4294705010
0.68211776 -0.53078771 -0.25657541 4294967183
0.68559313 -0.52036649 -0.25611269 4294966925
0.6848765 -0.51970756 -0.25998056 4294967176
0.68586528 -0.51751798 -0.25803533 4288780647
0.66059387 0.42160147 -0.25794959 4294374727
0.65873933 0.42753008 -0.25713098 4294573922
0.68202281 -0.5317288 -0.25267366 4292333410
0.68537807 -0.52131176 -0.25232935 4294901383
0.65962976 0.41892886 -0.25294974 4290160159
0.65751117 0.42773169 -0.25240156 4294508375
0.68169498 -0.53125662 -0.24753748 4294045568
0.6863544 -0.52124846 -0.24740376 4294308489
0.66025436 0.42028004 -0.24763384 4292658229
0.65456063 0.43230948 -0.24683304 4294241937
0.65513557 0.43080184 -0.24694072 4294704501
0.68205017 -0.53099245 -0.24283503 4294901651
0.6863367 -0.52120668 -0.24220322 4294045566
0.65822333 0.42245904 -0.24261455 4294835781
0.65437639 0.43339956 -0.24287727 4292266081
0.65538096 0.4319644 -0.24209802 4294900835
0.68377966 -0.53136253 -0.23820917 4294901646
0.68651807 -0.53210932 -0.2357024 4294901642
0.6852501 -0.52152717 -0.23775946 4294901380
0.65724367 0.42256132 -0.23765627 4294704970
0.65542263 0.43031847 -0.23698133 4294704982
0.68841076 -0.53183401 -0.23270096 4294770565
0.6901716 -0.53427434 -0.23247337 4294770563
0.68473822 -0.52127606 -0.23266985 4294770557
0.65471131 0.41778812 -0.23068535 4291542823
0.65603787 0.41751361 -0.23346426 4290027821
0.65459788 0.43245006 -0.23381001 4294834552
0.65555483 0.43253049 -0.23163174 4294702963
0.68972087 -0.53192705 -0.22944476 4294770567
0.69088364 -0.53158379 -0.22740936 4294836103
0.68718928 -0.52286732 -0.22748908 4294966928
0.65404963 0.41730213 -0.22727297 4291016229
0.65523809 0.41886011 -0.22848834 4294440506
0.65596271 0.43240237 -0.22710732 4294900837
0.69204175 -0.53175414 -0.22259676 4294770561
0.68831384 -0.52311271 -0.22260822 4294637715
0.65306628 0.41728908 -0.22254372 4292202030
0.65724063 0.43245688 -0.22245049 4294901081
0.69167817 -0.5329271 -0.21757469 4294901634
0.68785578 -0.52265042 -0.21784019 4293255046
0.65300781 0.41785279 -0.21789344 4292991032
0.65833414 0.43675771 -0.21795516 4294503819
0.68902588 -0.5316065 -0.21234971 4294901634
0.68464977 -0.52093554 -0.21248421 4294967171
0.68641931 -0.52314925 -0.21290933 4294505853
0.65314209 0.4175657 -0.21277899 4292202023
0.65845716 0.4365353 -0.21322764 4294767230
0.68724775 -0.53222352 -0.20709276 4294901641
0.68359971 -0.5182206 -0.20778343 4289108829
0.65301043 0.41765153 -0.20704864 4291937067
0.65806574 0.43590304 -0.20781949 4294835308
0.68425351 -0.53256369 -0.20175526 4294901644
0.68538594 -0.53201973 -0.20411876 4294967177
0.67977178 -0.51688302 -0.20041378 4291083100
0.68161571 -0.5174762 -0.2030118 4289700968
0.65286517 0.41740859 -0.20240806 4290687272
0.65926337 0.4364222 -0.20230199 4294835303
0.66036016 0.43811828 -0.20046949 4294965130
0.68135613 -0.52713573 -0.1973719 4294967178
0.6794126 -0.51687306 -0.19597316 4290886510
0.68032193 -0.51749361 -0.19768304 4290753905
0.65274447 0.4174763 -0.19768225 4290555430
0.66094601 0.4363659 -0.19744723 4294835802
0.6789251 -0.5274902 -0.19234346 4294901641
0.68008906 -0.52772748 -0.19334343 4294967174
0.6788184 -0.51682121 -0.19235781 4290095732
0.65266412 0.41773859 -0.19259009 4290884136
0.66276461 0.43647352 -0.19263655 4294704975
0.6783793 -0.52765012 -0.18741114 4294901642
0.67714906 -0.51795781 -0.18750565 4293124222
0.65331376 0.41784865 -0.18778333 4289502484
0.66288024 0.43712649 -0.18678729 4294836050
0.67893243 -0.5318135 -0.18206997 4294901639
0.67571503 -0.51691699 -0.18235311 4292202613
0.65680796 0.42271253 -0.18232302 4294769219
0.66264117 0.43657511 -0.18274382 4294704967
0.67935437 -0.5309853 -0.17824435 4294901632
0.68031824 -0.53309089 -0.17711416 4294836096
0.67421919 -0.51520824 -0.17961183 4290291314
0.67608029 -0.51787221 -0.17685662 4294506355
0.65510535 0.41966248 -0.17755501 4291606320
0.66145456 0.43658727 -0.17769986 4294704978
0.68052971 -0.53278929 -0.17216784 4294901631
0.67689818 -0.51826894 -0.17235446 4292794744
0.65587503 0.42189184 -0.1724195 4294243386
0.65963864 0.43677986 -0.17267281 4294508130
0.66070557 0.43701497 -0.17333353 4294639440
0.68080264 -0.5324803 -0.16712135 4294901633
0.67711604 -0.51785284 -0.16754057 4290161762
0.65441847 0.42167997 -0.1669375 4294836035
0.6558612 0.42350036 -0.16804965 4294704956
0.65784824 0.43650708 -0.16719908 4294965855
0.68132186 -0.53217101 -0.16227905 4294901629
0.67927915 -0.52245951 -0.16284646 4294901368
0.65417838 0.42204502 -0.16245389 4294770243
0.65676808 0.43659908 -0.16286267 4294966131
0.68205601 -0.53187227 -0.15732105 4294901628
0.6794278 -0.52257502 -0.15810135 4294835573
0.68030071 -0.52358025 -0.15635592 4294901630
0.6537469 0.42224547 -0.15784372 4294770500
0.65634429 0.43677408 -0.15579057 4294966402
0.68182772 -0.53227729 -0.15223455 4294770556
0.67950314 -0.52170187 -0.15261406 4294637186
0.65352923 0.42238227 -0.15298599 4294639422
0.65751094 0.43697143 -0.15248582 4294639236
0.68146104 -0.5322004 -0.14712353 4294836097
0.67902362 -0.52232718 -0.14774157 4294901373
0.65389436 0.42136738 -0.14795834 4294835769
0.6589154 0.43659213 -0.14752355 4294442874
0.68079346 -0.53272343 -0.1426409 4294836097
0.67944342 -0.52300084 -0.14258642 4294901376
0.65597618 0.42346397 -0.14223802 4294835780
0.6596365 0.43587774 -0.14343384 4294704737
0.66042054 0.43703341 -0.14259061 4294770527
0.67967832 -0.53173131 -0.13772932 4294836098
0.68043888 -0.53209931 -0.13827243 4294836098
0.67943144 -0.5221355 -0.13757437 4294769034
0.65470821 0.42057344 -0.13619855 4293250872
0.65619457 0.42322069 -0.13759662 4294769987
0.65870255 0.43550357 -0.13505538 4294836056
0.66056854 0.43653879 -0.13932313 4294770525
0.6798203 -0.53247738 -0.13312837 4294901638
0.68030077 -0.53218019 -0.1324181 4294901635
0.67916602 -0.5224179 -0.13276385 4294901379
0.68003118 -0.52433074 -0.13096209 4294901625
0.65541732 0.42210171 -0.13227552 4293715775
0.65794289 0.4362326 -0.13087477 4294836074
0.67884541 -0.53139442 -0.12716629 4294836096
0.68038785 -0.53216517 -0.12887374 4294901633
0.67906958 -0.52250487 -0.12780009 4294835584
0.6546768 0.42106423 -0.12676144 4293057337
0.65588832 0.42335251 -0.12802857 4294309193
0.65482575 0.43671495 -0.12677453 4294306961
0.65541524 0.43660143 -0.12706873 4294768771
0.67784429 -0.53219742 -0.1238729 4294836099
0.67693728 -0.52250624 -0.12233141 4294901377
0.65462679 0.42224565 -0.12278914 4294242119
0.65528214 0.42313808 -0.12056904 4294836045
0.65380341 0.43236262 -0.12294029 4294770264
0.67338824 -0.53115481 -0.11739017 4294899592
0.67580175 -0.52039945 -0.1185402 4294967165
0.67646146 -0.5175097 -0.11717901 4289636194
0.65436667 0.42195159 -0.11690023 4293518392
0.65550172 0.42296872 -0.11826305 4293189692
0.64944345 0.43130437 -0.11504457 4294900595
0.65102428 0.43207508 -0.1183844 4294835311
0.67213893 -0.53130549 -0.11178169 4290685252
0.67345512 -0.51907206 -0.11186659 4294901624
0.67638254 -0.51734811 -0.11268754 4289504342
0.65316778 0.42255548 -0.11253652 4294309188
0.64884269 0.43138728 -0.11191396 4294900074
0.67365468 -0.53149581 -0.10757623 4293121122
0.67389065 -0.5180282 -0.10743125 4294308462
0.65217054 0.4227455 -0.10761072 4294835783
0.64954567 0.431716 -0.10863822 4294901089
0.65050375 0.43157038 -0.10606782 4294901344
0.67461556 -0.53216994 -0.1045177 4294174836
0.67630994 -0.53244686 -0.10198516 4294835836
0.67398399 -0.5173043 -0.10255438 4293057386
0.65232205 0.42220908 -0.10245406 4294901585
0.65221202 0.43223333 -0.10253806 4294836054
0.67691171 -0.53244829 -0.097415969 4294901633
0.67320532 -0.5176239 -0.097714908 4294901626
0.65115631 0.41848692 -0.098004043 4290687531
0.65317273 0.43188313 -0.097887799 4294639453
0.67461646 -0.53022271 -0.091136247 4294901633
0.67571163 -0.53201711 -0.092826299 4294637951
0.67295533 -0.5176515 -0.092954181 4294901114
0.65057701 0.41859213 -0.092463642 4292990797
0.65267169 0.4323186 -0.0923329 4294442870
0.67475569 -0.53291273 -0.085901663 4292202085
0.67559725 -0.5322262 -0.088187836 4294768773
0.67312187 -0.51720226 -0.087659411 4294900868
0.65191096 0.42250913 -0.087130636 4294704723
0.65262568 0.43258065 -0.087591156 4294442627
0.6746487 -0.53310388 -0.081625171 4291477870
0.67544276 -0.5315879 -0.082634926 4294441091
0.67454183 -0.51755542 -0.083455242 4294241924
0.67528981 -0.51742601 -0.081432924 4292463986
0.6530292 0.42266175 -0.082496762 4294704723
0.65266144 0.4325799 -0.08251588 4294508167
0.67434478 -0.53233653 -0.076835483 4292530543
0.65445346 0.42264175 -0.077990659 4293585223
0.65531272 0.42105818 -0.076955453 4289436195
0.65319777 0.43239537 -0.077756979 4294442629
0.67560863 -0.53117877 -0.072189257 4294835078
0.67944735 -0.52258652 -0.072405346 4294901381
0.65522176 0.42095625 -0.072309226 4289699616
0.65409029 0.43267846 -0.072387934 4294442620
0.67616093 -0.53163648 -0.067485482 4294243195
0.67943388 -0.52273488 -0.067188442 4294703493
0.68023288 -0.52144867 -0.066780359 4293980030
0.65527987 0.42100853 -0.067428201 4289570080
0.65423554 0.43175301 -0.067820728 4294508399
0.65515852 0.43449146 -0.068156987 4294508414
0.67622852 -0.53185791 -0.062768139 4294176636
0.68069023 -0.5215953 -0.062053166 4294966920
0.65481812 0.42294151 -0.063201025 4294704224
0.65553212 0.42217499 -0.062220223 4291872834
0.65340263 0.43189937 -0.062185008 4294442630
0.67680568 -0.53173608 -0.057245225 4294504833
0.68088305 -0.52186435 -0.057211645 4294177399
0.65472007 0.42418224 -0.059333265 4294705006
0.65570664 0.42266935 -0.057024576 4292926806
0.65406489 0.43263838 -0.057355009 4294377104
0.65508556 0.43100655 -0.055148214 4294508408
0.67790824 -0.53206056 -0.052356709 4294900877
0.68160403 -0.52271986 -0.052601993 4293650561
0.65613753 0.42260104 -0.052419279 4292070989
0.65584666 0.43254408 -0.052336372 4294442884
0.68005604 -0.53063089 -0.046717659 4294967187
0.68184727 -0.52237779 -0.047271099 4292860793
0.65630931 0.42265472 -0.047658909 4292663623
0.6570136 0.43283528 -0.047800653 4294508410
0.65637231 0.42241898 -0.042354234 4292991815
0.65652454 0.43256983 -0.042448316 4294442629
0.67653918 -0.52222371 -0.038116328 4294901652
0.6546483 0.42050993 -0.037509359 4292401460
0.65622985 0.43195194 -0.037945893 4294508163
0.67540973 -0.51636833 -0.033889282 4292728444
0.65470904 0.42102185 -0.033148292 4294505826
0.65338492 0.42922887 -0.03261251 4294639487
0.675183 -0.53381419 -0.02507183 4292131983
0.65450668 0.4202224 -0.02913364 4291542601
0.65640855 0.42281318 -0.027181838 4292599138
0.65295386 0.42888352 -0.027398003 4294442878
0.66413784 0.43240422 -0.025804594 4288977416
0.66312075 0.43675971 -0.025795676 4288977437
0.67497116 -0.53205085 -0.023939848 4292395409
0.7258333 -0.4239943 -0.021587528 4288386710
0.65494138 0.42158866 -0.021367162 4294967145
0.65651542 0.42249334 -0.022372773 4289770570
0.66247094 0.43687788 -0.022579087 4288846370
0.67765146 -0.5176006 -0.01711126 4292926352
0.65426087 0.42224276 -0.017318554 4292862812
0.6598587 0.43770882 -0.015037149 4287733851
0.66098213 0.43642581 -0.017526053 4288846626
0.67849958 -0.51763284 -0.012295386 4292071816
0.65298462 0.42262676 -0.012278449 4292863080
0.6596992 0.43705145 -0.013102055 4288322628
0.66042864 0.43655047 -0.011823343 4288912422
0.67922813 -0.51784718 -0.0076772487 4292466061
0.64880317 0.41711417 -0.006981153 4293256284
0.65123165 0.42259172 -0.0076118466 4294705023
0.66161352 0.43669325 -0.0075242561 4288912423
0.67971742 -0.51764077 -0.0025242926 4291611779
0.68037748 -0.51768935 -0.0021935999 4291282312
0.64925468 0.4171778 -0.0030271388 4292533070
0.66281801 0.43662643 -0.0026505813 4289174555
0.681126 -0.51788652 0.0022199184 4291150220
0.65138847 0.41775438 0.0022371304 4291807315
0.66265768 0.43669987 0.0022552034 4288977953
0.6818307 -0.51804101 0.0074199936 4290953099
0.65220731 0.41737595 0.0071132015 4289766464
0.66159987 0.43689206 0.0075221225 4288912685
0.68163568 -0.51767284 0.010746764 4291280778
0.65240079 0.41715938 0.010511622 4289830211
0.65435225 0.42168197 0.010674345 4294835832
0.65704644 0.42723274 0.011794851 4291280946
0.6601876 0.43719786 0.010996595 4288454480
0.65654713 0.42721978 0.017595015 4289174277
0.65450817 0.43428048 0.019105032 4288848204
0.65698236 0.43681729 0.016291339 4287672211
0.65637124 0.42728487 0.022328731 4289239554
0.654414 0.43412986 0.022401741 4288323681
0.65848309 0.42778063 0.02605339 4289174018
0.6612069 0.43216538 0.029205205 4289305349
0.65789807 0.43675306 0.027679702 4287801474
0.66110224 0.43604082 0.029195284 4289108767
0.66265094 0.43220645 0.032453422 4289305092
0.66513503 0.43391007 0.034521922 4289370883
0.66288227 0.4367784 0.03259325 4289108766
0.6643759 0.43186003 0.036728892 4289108224
0.66635168 0.43409413 0.038205609 4289305344
0.66424602 0.43675044 0.0356327 4289239304
0.66619128 0.43689802 0.037995122 4289239045
0.66480988 0.4336729 0.044428151 4289436160
0.66561949 0.43257567 0.041973896 4289239552
0.66449058 0.43692362 0.043777496 4289041934
0.66548741 0.43699908 0.041368432 4289042183
0.66412348 0.43249062 0.04750992 4289304576
0.66360188 0.43679032 0.047655966 4288977175
0.66511941 0.4350667 0.045886591 4289370368
0.66390163 0.43694133 0.051959213 4289174291
0.66472435 0.43727016 0.055825736 4289240083
0.66585273 0.4368605 0.057559598 4289174020
0.66266769 0.43276224 0.082149632 4289042703
0.66294748 0.43673676 0.082093358 4288977431
0.66320729 0.43272185 0.087666787 4289174547
0.66327041 0.43666229 0.087172598 4289174813
0.66312486 0.43242764 0.092667401 4289174802
0.66349494 0.4365572 0.092671663 4289240602
0.66353101 0.43208039 0.0976457 4289109010
0.66439128 0.43651694 0.097909085 4289240854
0.66528857 0.43807203 0.097404018 4289241109
0.6632852 0.43233505 0.10240513 4289240338
0.66303027 0.4365578 0.10263841 4289240862
0.66222167 0.43209612 0.10773207 4289240341
0.66166842 0.43670076 0.10708825 4288978740
0.68921584 -0.52089506 0.11276896 4287670661
0.66224134 0.43263897 0.11279916 4289175062
0.66134775 0.4366824 0.11246646 4289044532
0.6897195 -0.52155948 0.11723465 4288063848
0.66272682 0.43226141 0.1178353 4289110036
0.66197675 0.43646333 0.11777528 4288847928
0.66174793 0.43253669 0.12273442 4289175063
0.65986776 0.43763664 0.12439816 4287276937
0.66084039 0.43648911 0.12253033 4288520517
0.69131327 -0.52515185 0.12702793 4289047880
0.66148585 0.43245244 0.12757483 4289241117
0.65934515 0.4371421 0.12755291 4287408011
0.69167262 -0.52620083 0.1325821 4289113157
0.69176579 -0.5227645 0.13198751 4287799391
0.6618619 0.43295392 0.13245456 4289306915
0.65939498 0.43726954 0.13246486 4287802250
0.69317979 -0.52744573 0.13786009 4289178949
0.69195944 -0.52229828 0.1370554 4287601754
0.66324258 0.43258128 0.13785663 4289175839
0.66193789 0.43623713 0.1374041 4288914243
0.69423079 -0.53032923 0.14302218 4289506635
0.69322091 -0.52693468 0.14255966 4289310027
0.69242936 -0.52219266 0.14244555 4287602532
0.66377038 0.43245882 0.14278962 4289110301
0.66311675 0.43677402 0.14280559 4288979780
0.69546384 -0.53157657 0.14738487 4289441099
0.69269514 -0.5230208 0.14767385 4288654688
0.66559684 0.43254596 0.14798939 4289241624
0.66438884 0.43694758 0.14817083 4289045305
0.66525102 0.43575144 0.14754692 4289241892
0.69474351 -0.53066409 0.15024897 4289441613
0.69603646 -0.5320698 0.15277423 4289441610
0.69241786 -0.52185452 0.15254351 4288589154
0.66479182 0.42894527 0.1534971 4289241107
0.66485584 0.43105876 0.15232639 4289306899
0.66394323 0.43656072 0.15278921 4289045562
0.69637412 -0.53200573 0.15796527 4289441869
0.6930064 -0.52202946 0.15782067 4288327022
0.66440421 0.43743095 0.15749291 4288586850
0.69483155 -0.53062761 0.16464669 4289441875
0.69599336 -0.53199238 0.16211607 4289507665
0.69433051 -0.52251464 0.16307287 4287734373
0.67062783 0.4313035 0.16301972 4288912930
0.66404188 0.43807101 0.16313337 4287736213
0.69473481 -0.53204393 0.16863194 4289507674
0.69583827 -0.53257799 0.16734385 4289507925
0.66579366 0.43609926 0.16714929 4289438520
0.69463271 -0.53187943 0.1719092 4289705055
0.69532949 -0.53236073 0.17293026 4289705058
0.69474405 -0.52385855 0.17097285 4288983388
0.66243023 0.43372783 0.17317373 4289504307
0.6713205 0.43076503 0.17211984 4288979491
0.66252381 0.4356924 0.17139842 4288717925
0.66564286 0.43535984 0.17038459 4289570092
0.69472319 -0.53209358 0.17741174 4289508468
0.69521505 -0.53146684 0.17666547 4289639017
0.69636488 -0.52255672 0.17724426 4286552177
0.65730232 0.43220642 0.17716531 4288391283
0.67075187 0.43087617 0.17672305 4289373208
0.69461262 -0.53230751 0.18272762 4289444222
0.69515729 -0.53127986 0.18197723 4289771629
0.69633567 -0.52263683 0.18243907 4287407221
0.71844769 -0.40283856 0.18239737 4287865236
0.71817923 -0.39785433 0.18223891 4287865492
0.72009569 -0.3854751 0.18459377 4288785298
0.72031903 -0.38418221 0.18459377 4288785298
0.71843237 -0.3723096 0.18222974 4287208085
0.71900666 -0.36764631 0.1824301 4287076757
0.72147608 -0.35252813 0.18359432 4287536534
0.72102517 -0.34763318 0.18329421 4287010961
0.7070713 0.045902096 0.18476002 4287733904
0.65645379 0.42960739 0.18207288 4289570102
0.65625972 0.43094271 0.18272036 4288456310
0.69419438 -0.53171027 0.18779403 4289312900
0.69628233 -0.52269173 0.18800339 4287998842
0.73013073 -0.41683316 0.18954137 4288718735
0.72377992 -0.41021746 0.18643884 4288785300
0.72612947 -0.41173306 0.18862778 4288850321
0.72382182 -0.4073112 0.18768477 4288719505
0.72317022 -0.39252055 0.18714429 4288719505
0.72266734 -0.38765272 0.1874311 4288785041
0.7198813 -0.38144368 0.18705958 4288916114
0.71969366 -0.37743545 0.18651801 4288916114
0.7212615 -0.36254919 0.18728572 4288916370
0.721021 -0.35776404 0.18732059 4288981909
0.71992171 -0.34094259 0.18542363 4288851093
0.72165895 -0.33760256 0.18774013 4288851091
0.72131145 -0.33261096 0.18735677 4288851347
0.72065794 -0.32743007 0.1877027 4288917139
0.72080618 -0.3227587 0.18754567 4288851347
0.72073245 -0.31744152 0.18764041 4288785814
0.71995753 -0.30418187 0.18789864 4288851606
0.72072643 -0.30226135 0.18729979 4288720533
0.72144288 -0.2972382 0.18730724 4288720533
0.72285151 -0.27239034 0.18775435 4288589717
0.7221238 -0.26763543 0.18742929 4288589718
0.72095752 -0.26264727 0.18707186 4288589974
0.71952891 -0.25769556 0.18808272 4288589718
0.71965259 -0.24741749 0.18895578 4288589206
0.71771711 -0.1874537 0.18715216 4288194710
0.7175411 -0.18208161 0.18789159 4288260501
0.71746457 -0.17786413 0.18822679 4288391830
0.71633452 -0.17283322 0.18798639 4288326037
0.71454448 -0.16661732 0.18599387 4288392084
0.71584946 -0.1678063 0.18807712 4288325778
0.71439034 -0.16197321 0.18687719 4288457365
0.71476197 -0.15800601 0.18670301 4288457622
0.71546835 -0.15688235 0.18813349 4288588694
0.71474779 -0.15284322 0.18673325 4288457878
0.71631879 -0.12221316 0.1886358 4288589206
0.71674299 -0.077732094 0.18696642 4287668374
0.70735919 0.04725844 0.1871334 4287536013
0.70855516 0.052138813 0.18760617 4288061583
0.70958 0.057208069 0.18910286 4288257932
0.70974886 0.063108839 0.18906614 4288455822
0.70989287 0.066030547 0.18945765 4288455822
0.70961821 0.083508089 0.187849 4288588180
0.70900786 0.087774135 0.18761183 4288719510
0.70773214 0.2073938 0.1875895 4289375891
0.70703936 0.21235345 0.18713002 4289375638
0.7048313 0.21880902 0.18689361 4289113493
0.70628333 0.21707642 0.18765581 4289244566
0.70547915 0.22696625 0.18858898 4289178773
0.70439506 0.23199736 0.18659522 4289310358
0.70467448 0.23643287 0.18678851 4289244565
0.70833027 0.25042039 0.18927984 4289310099
0.7082113 0.29875398 0.18837811 4290098579
0.70658457 0.30210796 0.18797262 4289966740
0.70537138 0.3050707 0.18610418 4288783508
0.66224623 0.43326214 0.18813872 4289177414
0.69447434 -0.5287115 0.19282401 4289575027
0.6973244 -0.52258176 0.19277783 4286815346
0.73464465 -0.4255667 0.19370294 4289178511
0.73693186 -0.42831877 0.19280207 4289244820
0.73279101 -0.42250577 0.1926809 4289112462
0.72948664 -0.41775122 0.19294414 4289309070
0.73013371 -0.41718733 0.19229147 4289243534
0.72159821 -0.3224932 0.19243646 4289507478
0.72303474 -0.29281774 0.19170427 4289047958
0.72369337 -0.28752851 0.19141994 4288851347
0.72452796 -0.28243744 0.19190674 4289048469
0.72392136 -0.24744283 0.19268265 4289703559
0.72510672 -0.24639511 0.19252168 4290032006
0.72364229 -0.24291971 0.19224761 4289637772
0.72551304 -0.24100877 0.19183503 4289309068
0.72630024 -0.23758632 0.19250697 4289900684
0.72591966 -0.23275393 0.19276416 4289900938
0.72613817 -0.22762494 0.19234473 4289440649
0.72385436 -0.22259957 0.19256686 4289311126
0.72565049 -0.21750908 0.19191499 4288849548
0.72283816 -0.21251966 0.19284016 4289704594
0.7258206 -0.21266867 0.19100134 4287862921
0.72298574 -0.20772429 0.19237433 4289506443
0.72244322 -0.20259759 0.19266441 4289703047
0.72292966 -0.19759293 0.19225612 4289900685
0.724141 -0.19241659 0.19291815 4289900422
0.72406739 -0.16236052 0.19366173 4289702782
0.72595149 -0.16249861 0.19125901 4288982416
0.71718264 -0.14723772 0.19254628 4289506697
0.71677423 -0.14244874 0.19258523 4289506699
0.71804994 -0.13781165 0.19259873 4289441166
0.72106493 -0.13656311 0.19137689 4289704848
0.72251612 -0.13227451 0.19247189 4289769871
0.72307193 -0.12728754 0.1925052 4289770645
0.72248107 -0.11804568 0.1924006 4290033301
0.71823627 -0.11243391 0.19316076 4289310353
0.71837276 -0.10738142 0.1927361 4289638544
0.71718973 -0.10208345 0.19242899 4289507219
0.71486247 -0.095587865 0.19425566 4289702527
0.71678042 -0.097252019 0.19223808 4289441427
0.71465927 -0.094399169 0.19425566 4289702527
0.71654576 -0.092323989 0.19272763 4289507220
0.71452701 -0.087191805 0.19419476 4289636734
0.71413416 -0.082173258 0.19291455 4289768835
0.71417558 -0.072207972 0.19240651 4289966732
0.71479028 -0.067781523 0.19252844 4289639062
0.71900702 -0.053027336 0.19323058 4289507732
0.71342802 0.02870227 0.19192782 4288785298
0.71272355 0.032348271 0.19221514 4289113488
0.70922297 0.067377798 0.19226673 4288914577
0.71813595 0.067536615 0.1933697 4287733384
0.70947909 0.071647242 0.19320469 4289374611
0.71164 0.073101655 0.19199559 4288784015
0.712394 0.077502355 0.1924046 4288916373
0.71219087 0.082064688 0.19253772 4289178769
0.71220094 0.092467733 0.19287144 4289178769
0.71226197 0.097242966 0.19269441 4289113234
0.71173227 0.10220814 0.19271861 4289244564
0.71187896 0.10737168 0.19222057 4289245077
0.71233666 0.11710779 0.19274311 4289770902
0.71286255 0.13724692 0.1925381 4289573268
0.7140671 0.14286582 0.19292498 4289244304
0.71388876 0.14766668 0.19265492 4289178517
0.71290499 0.15135367 0.19346832 4289309843
0.71488404 0.15690532 0.19404058 4288980612
0.71661305 0.15796752 0.19309579 4289771157
0.71698636 0.16255327 0.19350606 4289705108
0.71464014 0.16987757 0.19454077 4289046405
0.71366906 0.17324904 0.19357693 4289638801
0.70952922 0.1887431 0.19081426 4289309845
0.70890528 0.19291326 0.19136745 4289375637
0.70688015 0.20755433 0.19200192 4289573014
0.70455366 0.2240288 0.19008629 4289310102
0.71723485 0.2240274 0.19355892 4290033553
0.70671076 0.23741287 0.19230454 4289572502
0.71168917 0.2423375 0.19229877 4290099091
0.70793259 0.2477418 0.19272655 4289375893
0.710886 0.24729443 0.19217752 4290033554
0.70907402 0.25226074 0.19315524 4289309576
0.70894623 0.25749299 0.19271836 4289703814
0.7094844 0.26229748 0.1936378 4289440384
0.71099061 0.26314956 0.19154832 4290624917
0.71130216 0.26820204 0.1919184 4290362001
0.70987487 0.27479404 0.19388673 4289111417
0.71089357 0.27271762 0.19205923 4290098828
0.70946729 0.2782878 0.19336461 4289177724
0.70948744 0.28157786 0.19274996 4289440897
0.71061277 0.28321427 0.19160134 4290296210
0.70940828 0.28799233 0.19266874 4289571713
0.71066672 0.28611836 0.19156931 4290164366
0.70850205 0.2924962 0.19230238 4289834628
0.70693153 0.29752257 0.19216682 4289834373
0.69964778 0.30892646 0.19174023 4290163079
0.70126712 0.30696481 0.19240424 4290096771
0.69846696 0.31237999 0.19240189 4290031493
0.6940859 0.31874597 0.19266868 4289834372
0.69604105 0.31637153 0.1923815 4289965959
0.68949783 0.32461548 0.19094107 4290887317
0.69234508 0.32257926 0.19221857 4290229132
0.68794769 0.32792813 0.19237827 4290492558
0.66231024 0.43380395 0.19245414 4288981084
0.67525047 0.4310956 0.19192295 4288454226
0.66381478 0.43582106 0.19448258 4289047146
0.69406492 -0.53096074 0.19580446 4289575559
0.69570059 -0.53117281 0.19858657 4289510014
0.73681539 -0.43277317 0.1979782 4289769105
0.74027663 -0.43320495 0.19534956 4289507476
0.7239666 -0.3827492 0.19731694 4290097045
0.7251792 -0.38388246 0.19788983 4290097299
0.7207253 -0.3559128 0.19963768 4290360469
0.71966237 -0.049845755 0.19511497 4289505923
0.72639078 -0.03813481 0.19679098 4289374850
0.71759599 0.027978299 0.19681346 4289178241
0.71155548 0.11229214 0.19725561 4289835414
0.71067005 0.12239709 0.19716881 4289901206
0.70967698 0.12631716 0.19656508 4289111940
0.70976907 0.13165821 0.19725937 4289111684
0.70994377 0.13531694 0.19703431 4288980099
0.71150106 0.177581 0.19733252 4289769618
0.71234435 0.18256707 0.19753359 4289835413
0.72194761 0.19804153 0.19528538 4289638793
0.72225654 0.20243922 0.196815 4289309572
0.72293794 0.20743667 0.19806446 4289046144
0.72323519 0.21271916 0.1984528 4288914304
0.72668934 0.21699671 0.19605516 4290033811
0.72511274 0.22034346 0.19535959 4290231701
0.68875247 0.32924393 0.19575906 4289570683
0.68796718 0.33298641 0.19672486 4290031497
0.69059885 0.33745211 0.19966863 4290162567
0.66377896 0.43480444 0.19703734 4288260217
0.69683051 -0.53095591 0.20293817 4289378937
0.73723388 -0.4427017 0.20286769 4290032019
0.73612744 -0.43818358 0.20198065 4290163092
0.71967417 -0.37167326 0.20096076 4290294678
0.72044641 -0.35605571 0.20227516 4290294678
0.68984753 0.33927807 0.20087774 4290097801
0.69274104 0.34223199 0.20375872 4289834115
0.66709399 0.4370921 0.20265608 4288327036
0.69664258 -0.53182054 0.20759089 4289575810
0.73919439 -0.45722759 0.2079996 4289967510
0.74032474 -0.45294699 0.20645364 4289966741
0.73777688 -0.44791088 0.2075204 4290163090
0.72498304 -0.38615161 0.20613101 4290426262
0.72661102 -0.38797957 0.20759353 4290360470
0.72338462 -0.25091371 0.20674033 4291147402
0.69303775 0.34740424 0.20607013 4290163336
0.69555801 0.3474479 0.20875284 4289767802
0.69543946 0.35263565 0.20886274 4290492047
0.66753447 0.43646243 0.20730209 4288523888
0.69572657 -0.53076333 0.21186496 4289444999
0.69456244 -0.52736598 0.21368147 4289772147
0.7380926 -0.45812112 0.21241637 4289835152
0.72908002 -0.40760371 0.2122957 4290426262
0.72885609 -0.40281874 0.21291204 4290426262
0.72874165 -0.3977409 0.212255 4290360469
0.72821486 -0.39281493 0.2127825 4290360469
0.72681618 -0.38767862 0.21268082 4290426262
0.7240572 -0.25171199 0.21208619 4291409289
0.69676161 0.3525492 0.21267967 4289702786
0.66687852 0.43645218 0.21220265 4288524160
0.69386655 -0.52738911 0.21738231 4289771897
0.73483372 -0.46377164 0.21918151 4289573269
0.7354942 -0.46262759 0.21659972 4289638545
0.73606896 -0.4583126 0.21595383 4289768845
0.73020715 -0.41110587 0.21832703 4290426262
0.72191882 -0.032540858 0.21739417 4290491283
0.71965456 -0.02720152 0.21748334 4291016845
0.71938318 -0.022871697 0.216811 4291082639
0.71951079 -0.018199019 0.21722707 4290951307
0.71985286 -0.013628758 0.21611264 4291148688
0.72123545 -0.012462472 0.21760868 4290754444
0.72116387 -0.0073881885 0.21741934 4290951564
0.7223289 -0.0022621411 0.21748208 4291017357
0.72250277 0.00286065 0.21693763 4291148944
0.72148871 0.0079851625 0.21701267 4291148687
0.72088534 0.012939674 0.21708363 4291083150
0.71993327 0.018510457 0.21708325 4291017359
0.72046977 0.01781434 0.21720491 4291082895
0.71980941 0.022472186 0.21763642 4291017103
0.72040999 0.023061948 0.2172697 4291082897
0.6989361 0.35769898 0.2171956 4289900422
0.70025665 0.3587122 0.21845146 4289900165
0.66794187 0.43667591 0.21752566 4288393602
0.69418114 -0.52618712 0.22257446 4289706360
0.73382121 -0.47267902 0.22287402 4287535760
0.73452729 -0.46803007 0.2229903 4289442452
0.73521245 -0.46743083 0.2222926 4289507731
0.73525804 -0.46424413 0.22073552 4289441681
0.72887915 -0.25682947 0.22371846 4290557845
0.70284295 0.36266297 0.22232728 4290032009
0.66848516 0.43690699 0.22264519 4288262023
0.67033643 0.43567595 0.22406134 4289375037
0.69366574 -0.52621293 0.22761248 4289772162
0.69355053 -0.52247912 0.22792743 4289640829
0.69509256 -0.52472305 0.22517729 4289640568
0.69356048 -0.51936948 0.22890484 4289378684
0.73256499 -0.47263226 0.22751492 4287732878
0.7275185 -0.25675023 0.22762281 4290557845
0.7048831 0.3639037 0.22502664 4289702527
0.70428705 0.36739102 0.22502665 4290558613
0.70637053 0.36726713 0.22791894 4290031756
0.66990697 0.43560255 0.22527815 4289374785
0.67116225 0.43698871 0.22858645 4288785514
0.69363034 -0.51722109 0.23212832 4287408782
0.73305416 -0.4676618 0.23241401 4289375630
0.72443509 -0.25594577 0.23223831 4291343750
0.70785326 0.36789304 0.23250207 4289505665
0.70717496 0.37246272 0.23271701 4290229652
0.67408258 0.43713254 0.23298094 4289309260
0.67601746 0.43616262 0.23390239 4289505843
0.73268902 -0.46741885 0.2373168 4289177482
0.72994316 -0.41398096 0.23670197 4290360470
0.72345322 -0.25607646 0.23788691 4291343750
0.70884293 0.37398288 0.23756444 4289637511
0.71057343 0.37253988 0.237929 4289439871
0.67682391 0.43679041 0.23801211 4289571381
0.73333722 -0.4674845 0.24169765 4289111435
0.72896832 -0.41848651 0.24161999 4290294677
0.73096293 -0.41732731 0.24358396 4290294678
0.72346061 -0.25634131 0.24252342 4291343752
0.71077728 0.37322327 0.24255542 4289374335
0.71073782 0.37575632 0.24337927 4289375106
0.67906308 0.43700343 0.24242708 4289637170
0.7340275 -0.46737465 0.24709016 4288783240
0.73143202 -0.42225257 0.2475639 4290294421
0.72467035 -0.25755462 0.24643858 4291343750
0.72686148 -0.25735578 0.24792753 4290754449
0.71028364 0.37598401 0.24748908 4289374858
0.68142384 0.43645206 0.24699393 4289636914
0.73302954 -0.46760106 0.25260973 4288849805
0.73237997 -0.42225891 0.25145116 4290360212
0.73015785 -0.26106718 0.25375029 4291278729
0.72835004 -0.25760937 0.25263155 4290754452
0.71049887 0.37510639 0.25175929 4289637511
0.6826933 0.43688554 0.25219485 4289702704
0.73367655 -0.46853095 0.25783256 4288390026
0.73156905 -0.26118231 0.25851458 4291278475
0.70879328 0.37319782 0.25764936 4289308804
0.71026272 0.37536973 0.25525185 4289571464
0.6833005 0.43639034 0.25758377 4289833519
0.73439628 -0.4683311 0.26257798 4288783497
0.73252267 -0.26216754 0.26275414 4290819988
0.73546934 -0.26216552 0.26397017 4291409288
0.70746577 0.37260455 0.26202822 4289243014
0.68345642 0.43662679 0.2626467 4289899570
0.73373032 -0.46839845 0.26743573 4288324236
0.73618257 -0.26522854 0.26878792 4291474823
0.73630255 -0.26234078 0.26728395 4291474823
0.70825899 0.37254387 0.26743752 4289243269
0.68445301 0.43628353 0.26649213 4289899570
0.68519956 0.43631208 0.26887333 4289899566
0.73588151 -0.46640438 0.27196538 4288783751
0.73597562 -0.26642758 0.27321449 4291016854
0.70940471 0.37308586 0.27154353 4289178504
0.71043175 0.37273812 0.27283517 4289309569
0.68680948 0.43683717 0.27309391 4289899308
0.73371524 -0.46828061 0.27674967 4287141505
0.73632234 -0.46637249 0.27825868 4288718470
0.72995579 -0.37607616 0.27632216 4290557334
0.73581249 -0.26636112 0.27737507 4291082387
0.70981717 0.37365559 0.27508432 4289309314
0.71185797 0.37193906 0.27731946 4289636996
0.68610364 0.43635488 0.2777361 4290030380
0.73693448 -0.46690387 0.28246611 4288718216
0.73761559 -0.43777812 0.28260684 4290426260
0.73650473 -0.2671155 0.2825968 4290951574
0.71382684 0.3727864 0.28126523 4289637254
0.71579522 0.37807283 0.28324699 4288521361
0.68699312 0.43701172 0.28239426 4289964586
0.73741281 -0.46771047 0.28717324 4288718471
0.73851758 -0.43734828 0.28647333 4290491542
0.73481292 -0.26679671 0.28812906 4291475338
0.73742962 -0.2671012 0.28726232 4290951318
0.7182951 0.37747365 0.28732616 4289571725
0.68693095 0.43683004 0.28759515 4289899313
0.74030662 -0.4709785 0.29455581 4288391571
0.73775023 -0.46875945 0.29140401 4288390794
0.7391448 -0.27070481 0.29358417 4290951316
0.73726946 -0.26694047 0.29167685 4291278475
0.71928263 0.37731907 0.2926901 4289506184
0.72019601 0.37755072 0.29362643 4289440912
0.68463349 0.43683663 0.29391706 4289768504
0.68555927 0.43652433 0.29151532 4289834036
0.74253821 -0.47121635 0.29814872 4288456334
0.74246645 -0.46942377 0.29674482 4288652936
0.73872805 -0.27050367 0.29689425 4291409287
0.72217017 0.3771188 0.29792991 4289571974
0.68387485 0.43665564 0.29782116 4289703233
0.74760276 -0.47191736 0.30230182 4288784267
0.74295461 -0.27176911 0.30220976 4291213201
0.72286552 0.37772959 0.30191559 4289637515
0.68321896 0.43677098 0.30266261 4289572429
0.7480126 -0.4724794 0.30710185 4288652940
0.74446988 -0.27220839 0.30729026 4291147924
0.72330141 0.37821484 0.3075082 4289506702
0.68357956 0.43685263 0.30655786 4289572428
0.68580413 0.43583503 0.30896464 4289965359
0.74842167 -0.47403869 0.31208736 4287469185
0.7456311 -0.27224484 0.31275123 4291476113
0.72329885 0.37779206 0.3126134 4289441423
0.68413448 0.43759322 0.31214041 4289441370
0.70835733 -0.52706283 0.3177923 4290167956
0.70811796 -0.52251369 0.31764367 4289773711
0.75067377 -0.47538927 0.31705365 4288455815
0.74994034 -0.47378546 0.31978935 4288586631
0.74572623 -0.27231482 0.31766534 4291607439
0.72383606 0.3777169 0.31764233 4289638029
0.68455607 0.43822843 0.31720734 4289048702
0.68754601 0.43667164 0.3174217 4290031415
0.70679975 -0.5266341 0.32269681 4290036626
0.75165576 -0.47188935 0.32187921 4288981130
0.74572676 -0.27631649 0.32288262 4291738508
0.72345102 0.37736791 0.32034969 4289638029
0.72561151 0.3779408 0.32352605 4289703565
0.68963015 0.43738613 0.32291731 4290162741
0.7069087 -0.52608258 0.32802019 4290036628
0.7527706 -0.47137013 0.32729068 4289046926
0.74962926 -0.44018763 0.32757217 4290622357
0.74926609 -0.43670514 0.3282347 4290556309
0.74813414 -0.43236643 0.32723695 4290425494
0.74486268 -0.42231724 0.32836753 4290359957
0.74602306 -0.42394692 0.32738751 4290294165
0.74095607 -0.4071677 0.32783622 4290294678
0.74350905 -0.2726211 0.32737729 4291476370
0.72603685 0.3775382 0.3274889 4289769356
0.68981171 0.43810746 0.32751682 4290097469
0.69276816 0.43665129 0.32797354 4290228276
0.7115196 -0.52592826 0.3321771 4290035588
0.70705295 -0.52450496 0.33177871 4290101651
0.75260401 -0.47191244 0.33245826 4289046924
0.74549603 -0.41252288 0.33415702 4290294677
0.74352479 -0.40245742 0.33250561 4290359956
0.74301678 -0.27290815 0.3322013 4291672977
0.72710288 0.37804338 0.33255693 4289835150
0.72640777 0.3815001 0.33251438 4287666834
0.69388211 0.43670022 0.33230036 4290294061
0.71449739 -0.52612585 0.33571807 4289904515
0.71675676 -0.52682102 0.33846489 4289773189
0.75309235 -0.47178385 0.33818108 4288981640
0.75289309 -0.44683552 0.33818182 4290557589
0.74695796 -0.40774438 0.33779398 4290557590
0.7441538 -0.39675632 0.33639243 4290294164
0.74612623 -0.39874011 0.33889621 4290425750
0.74397039 -0.2770564 0.33767179 4291672722
0.74332553 -0.27275765 0.33610016 4291738258
0.72701073 0.37712687 0.33749712 4289966226
0.69470596 0.43476993 0.33835682 4290490922
0.69453144 0.43692526 0.33722949 4290294061
0.71719867 -0.53008318 0.34409678 4290166920
0.71789163 -0.52810854 0.34216949 4289904515
0.7524541 -0.47205263 0.34270701 4288915850
0.75313962 -0.44734508 0.34220463 4290491797
0.7494933 -0.05737314 0.34446132 4291542420
0.74813908 -0.052168693 0.34284419 4291410835
0.74612546 -0.047918364 0.34219685 4291345301
0.74527979 -0.044931702 0.34180105 4291345301
0.72690433 0.37760419 0.34268922 4289966484
0.69687724 0.43649077 0.34244689 4290360108
0.72339743 -0.53163171 0.34822622 4290035582
0.75283819 -0.47325429 0.34757009 4288587146
0.75432229 -0.45001259 0.3482812 4290557332
0.75443959 -0.4477753 0.34743562 4290557334
0.75132793 -0.27739242 0.3485117 4291739029
0.75089717 -0.27303532 0.34698761 4291607442
0.73850191 -0.032256953 0.34767279 4291411094
0.73470771 0.15407416 0.34548885 4290688139
0.73433506 0.15783003 0.34712049 4290753933
0.73344433 0.18246913 0.3461996 4290951311
0.7330516 0.18747707 0.34661955 4290951311
0.72683746 0.37235272 0.34750172 4290295442
0.69752848 0.43698674 0.34734255 4290360111
0.7239458 -0.53245932 0.35103282 4290035581
0.72656721 -0.5312441 0.3526904 4289642370
0.75698876 -0.47129399 0.3523072 4289178250
0.75488275 -0.45117038 0.35499352 4290688918
0.75529373 -0.2740362 0.35381341 4291739028
0.7385968 -0.027654177 0.3523654 4291411094
0.73812461 -0.022374474 0.35286191 4291411094
0.73753351 -0.017388068 0.35164818 4291345301
0.73776841 -0.0076991045 0.35237539 4291214228
0.74304444 0.13726142 0.35234582 4290885520
0.74524403 0.13559216 0.35484493 4291017104
0.74179602 0.14259288 0.35288495 4290819725
0.74099606 0.1468859 0.35380876 4290885518
0.73461246 0.16260506 0.35063618 4290885520
0.73453474 0.16662954 0.35192284 4290951314
0.73475945 0.17259797 0.35146207 4291016851
0.73416656 0.1788514 0.35015154 4291016852
0.73478091 0.19224587 0.35105696 4291148692
0.73472768 0.19798757 0.35146797 4291148692
0.73415828 0.20275779 0.35145006 4291082645
0.72749555 0.37263644 0.35247844 4290295190
0.69893175 0.43666592 0.35252979 4290360117
0.72972727 -0.5334124 0.3583248 4289773702
0.73028356 -0.5323956 0.35729432 4289511563
0.75237387 -0.47196087 0.35728461 4288126600
0.75561994 -0.47152907 0.35517231 4289178250
0.7546646 -0.45141569 0.35780853 4290623382
0.75628257 -0.28141159 0.35851732 4291804306
0.75671941 -0.27761567 0.35711044 4291804051
0.74632978 0.13180244 0.35749578 4291083411
0.73458326 0.21306495 0.35723013 4291345045
0.72908789 0.3778652 0.3576526 4289835670
0.69870281 0.43664023 0.35802639 4290294839
0.73240948 -0.53236121 0.36260003 4288592273
0.75156438 -0.471356 0.36213988 4289112981
0.74930125 0.1243211 0.36381191 4290951826
0.74640381 0.13182142 0.3629193 4291017364
0.7289958 0.37299281 0.36276618 4290098576
0.69924283 0.43686628 0.36245656 4290294581
0.70116389 0.43636805 0.36432397 4290425651
0.75718737 -0.4523778 0.36735657 4290557333
0.75165272 0.12169233 0.36747524 4290951571
0.73053414 0.37711161 0.36831066 4289835667
0.69968128 0.43808764 0.36611325 4290294837
0.7009238 0.4363291 0.36754611 4290360370
0.7583462 -0.45810351 0.37219733 4290491539
0.75481778 0.11356157 0.37297088 4290951059
0.73120147 0.37306806 0.37329242 4289901456
0.70175552 0.43671498 0.37242046 4290360634
0.759345 -0.45764846 0.37701532 4290623125
0.73321307 0.37769577 0.37753704 4289835925
0.70246518 0.43668547 0.37764999 4290491712
0.73785108 -0.5326286 0.38305998 4287344021
0.75975692 -0.46188802 0.38064232 4290491539
0.76100361 -0.46229225 0.38329113 4290425746
0.73391968 0.37739018 0.38242176 4289901714
0.73521537 0.37761366 0.38327026 4289967249
0.69362688 0.43795288 0.38432747 4289378700
0.76383835 -0.46243605 0.38771418 4290491794
0.73454028 0.37800273 0.38805366 4289967763
0.73529655 0.37651268 0.38751996 4290098578
0.69734162 0.43716472 0.38718539 4290427737
0.70217842 0.4362947 0.38727558 4290558020
0.73741722 -0.5326097 0.39245799 4289840271
0.74521434 0.21100897 0.39211726 4291214230
0.73554134 0.37689605 0.39259878 4290164630
0.70324636 0.4363454 0.3912335 4290426941
0.70689362 0.43608773 0.39219117 4290426682
0.73699999 -0.53312731 0.39724424 4289970302
0.76496959 -0.45028949 0.39534402 4290688918
0.76708424 -0.4523451 0.39815974 4290688918
0.73535991 0.37660927 0.39619988 4290230166
0.70704299 0.43658653 0.39550057 4290426681
