# .PCD v0.7 - Point Cloud Data file format
VERSION 0.7
FIELDS x y z rgb
SIZE 4 4 4 4
TYPE F F F U
COUNT 1 1 1 1
WIDTH 1066
HEIGHT 1
VIEWPOINT 0 0 0 1 0 0 0
POINTS 1066
DATA ascii
0.69877017 0.037298396 -0.45698971 4284966758
0.6974839 0.041324824 -0.4559207 4285032548
0.67799878 0.12755196 -0.45724669 4286412666
0.6874541 0.14235123 -0.45881385 4285297525
0.67472768 0.4109222 -0.45539042 4286408262
0.67647368 0.41237897 -0.45795593 4286212167
0.71909463 -0.51742035 -0.45193642 4285757553
0.71464151 -0.48620123 -0.45180079 4285626742
0.71652937 -0.48845407 -0.45398915 4285626486
0.71422195 -0.482793 -0.45272154 4285888887
0.70625073 -0.39274633 -0.45273483 4286021243
0.69750059 0.041475706 -0.45270252 4284966758
0.67664975 0.12738363 -0.45294753 4286543735
0.6755718 0.41278416 -0.45219862 4286475310
0.71770078 -0.51720351 -0.44717339 4285822832
0.71208137 -0.48206502 -0.44685024 4285757303
0.71168345 -0.47723341 -0.44642687 4285954169
0.71189994 -0.47304371 -0.44699043 4285888889
0.7115438 -0.46721983 -0.4477562 4286020219
0.69420004 0.043068532 -0.44742021 4284704613
0.69612193 0.041667197 -0.44860297 4284508005
0.69326985 0.046275586 -0.44713277 4284704357
0.67446762 0.13244207 -0.4475657 4286478193
0.67408466 0.41210291 -0.44734097 4286410056
0.71467686 -0.51923239 -0.44007799 4285953902
0.71647942 -0.5174225 -0.44242594 4286018927
0.7090022 -0.46714446 -0.44293195 4285757817
0.70837486 -0.46233299 -0.44212618 4285954939
0.70687795 -0.45740673 -0.44215554 4286020217
0.69231749 0.046425648 -0.44290873 4284770400
0.67552447 0.13292286 -0.44109452 4285888375
0.67444479 0.41209075 -0.44291154 4286277709
0.67507482 0.41247779 -0.4433274 4286802753
0.7138887 -0.5186609 -0.43728623 4286019437
0.70470214 -0.45392847 -0.43792 4286020218
0.70525301 -0.45309675 -0.43703103 4285954424
0.68920809 0.047958087 -0.43561712 4284573796
0.69062978 0.046196889 -0.43793008 4284704610
0.67614406 0.13246778 -0.43753728 4285888116
0.67413324 0.41229734 -0.43735191 4286343489
0.70929289 -0.51598346 -0.43027246 4286019695
0.7118876 -0.51730806 -0.43343496 4286019180
0.70234746 -0.45199376 -0.43115097 4285954426
0.68950397 0.050036281 -0.43334514 4284770403
0.67465472 0.12412417 -0.43132129 4286674550
0.67603546 0.12768848 -0.4327563 4285888374
0.67448515 0.41238889 -0.4323847 4285752648
0.6750381 0.4108597 -0.43083256 4285293404
0.70820415 -0.51685429 -0.42755967 4286084976
0.70954967 -0.51262742 -0.42605978 4285756271
0.69975156 -0.44669712 -0.42731628 4286019705
0.68822819 0.051986046 -0.42679992 4284967012
0.6766324 0.11260755 -0.42730591 4286020476
0.67742705 0.11739416 -0.42804882 4285889145
0.67435271 0.41161254 -0.42643631 4285490776
0.67531615 0.41260937 -0.42925206 4285752656
0.70754135 -0.5121063 -0.42237598 4285690477
0.69967037 -0.44616887 -0.42298886 4286019961
0.6885038 0.052519884 -0.42261061 4284770151
0.69065368 0.057434753 -0.42337036 4284901995
0.69091213 0.060651053 -0.42233431 4285361518
0.67607027 0.10824708 -0.42308351 4285692024
0.67481571 0.41316289 -0.42443916 4285754457
0.67578143 0.41196749 -0.42233691 4285359964
0.67453611 0.41549349 -0.42412382 4287001106
0.70405811 -0.51290482 -0.41732135 4285887855
0.68885851 0.061988235 -0.41698956 4285100138
0.69075626 0.060663648 -0.41980976 4285164908
0.67701685 0.41238102 -0.41762963 4285227614
0.70234621 -0.51300991 -0.41265935 4286018925
0.69912767 -0.44284925 -0.41086024 4286019960
0.69981122 -0.428056 -0.41479731 4286020987
0.68668717 0.062345106 -0.41248074 4285100138
0.68606508 0.06588228 -0.41249347 4285428075
0.68288529 0.073903635 -0.41196337 4286019695
0.67164558 0.098627865 -0.41280261 4285889400
0.67253429 0.10286959 -0.41233501 4285823353
0.67714256 0.41249314 -0.41241083 4285096026
0.70051783 -0.51213145 -0.40786022 4286084460
0.70315546 -0.42759943 -0.40712449 4286019704
0.70413464 -0.42240682 -0.40744123 4286019447
0.70529425 -0.42017925 -0.40566164 4285953654
0.7059322 -0.41709 -0.40712446 4286019448
0.70716858 -0.41268399 -0.40702006 4286019190
0.70859879 -0.39244679 -0.40701771 4286019698
0.67052758 0.093797393 -0.40700674 4285692024
0.67499512 0.41473103 -0.40541583 4285554261
0.67557341 0.41656989 -0.40830651 4287065394
0.69843948 -0.51248997 -0.4022643 4286215789
0.67410135 0.079965025 -0.4006415 4284705131
0.6771642 0.077058613 -0.40234661 4285625201
0.67259169 0.082882479 -0.40146217 4285165678
0.6694743 0.089313142 -0.40309653 4285429364
0.67090672 0.087188564 -0.40125385 4285297520
0.67469102 0.41215256 -0.40152106 4285160791
0.67518735 0.41631603 -0.40217045 4286539060
0.69738358 -0.51279032 -0.39788595 4286347120
0.67290783 0.41304398 -0.39682007 4285292620
0.69460744 -0.51101542 -0.39155868 4286018924
0.69571698 -0.51240671 -0.39310253 4286281584
0.67029071 0.4133049 -0.39233613 4286080310
0.69487387 -0.51192266 -0.38921553 4285887855
0.66824168 0.41258615 -0.38771898 4286015290
0.69449615 -0.51189375 -0.3833622 4286215790
0.69566876 -0.5135085 -0.38263452 4286084978
0.66680479 0.41269985 -0.38219348 4286936102
0.69646931 -0.51338089 -0.37757042 4285887854
0.66464114 0.41157097 -0.37606984 4285950247
0.66604614 0.41251558 -0.37811771 4287002422
0.69478667 -0.51221526 -0.37226743 4285822060
0.66477543 0.41156372 -0.3737258 4285556256
0.66543692 0.41282031 -0.37244901 4286739502
0.69560647 -0.51331753 -0.36780766 4285690474
0.66355497 0.41189739 -0.36737254 4287263789
0.69350421 -0.51251364 -0.36258423 4286018666
0.69530594 -0.51327652 -0.3634775 4286084203
0.66111529 0.40754411 -0.3626512 4285160781
0.69101733 -0.51266551 -0.3577151 4286346858
0.66038054 0.40837637 -0.35764775 4285423691
0.68847901 -0.50782079 -0.3524704 4285756524
0.66036141 0.40918112 -0.35262856 4286014785
0.68853509 -0.50808078 -0.34755972 4285428073
0.66029102 0.40905982 -0.34694576 4286144589
0.68903911 -0.51251012 -0.34247267 4286412137
0.66244191 0.41280907 -0.34298477 4286867246
0.68908876 -0.51232117 -0.33779922 4286608491
0.66327095 0.41185793 -0.33768365 4285423432
0.68840188 -0.51194388 -0.33319908 4286148969
0.66534787 0.41304576 -0.33289433 4285292611
0.68681544 -0.50722265 -0.32784095 4285754986
0.66428095 0.41192144 -0.32689145 4284898638
0.66537547 0.41360521 -0.32934394 4285489727
0.68446487 -0.51211876 -0.32157704 4286674786
0.66315603 0.41198593 -0.32286093 4284767059
0.68390965 -0.51262671 -0.31729537 4286871395
0.66164482 0.41277316 -0.31783834 4285620029
0.68322617 -0.51237249 -0.31242281 4286478177
0.67725414 -0.042676952 -0.31262222 4282599747
0.66106933 0.41296417 -0.31257728 4285554760
0.66072619 0.4130443 -0.30725521 4285619769
0.68332171 -0.51244098 -0.30276918 4286149991
0.66045272 0.41401348 -0.3024148 4286144821
0.68430281 -0.51277465 -0.29792956 4286346089
0.68514365 -0.51178098 -0.2958847 4285952355
0.65894246 0.41287342 -0.29721653 4285620540
0.68475634 -0.51377106 -0.29403666 4286281320
0.65983814 0.41597256 -0.29330647 4286934808
0.68680066 -0.51240087 -0.287305 4285559145
0.65968823 0.43669552 -0.28604472 4287193661
0.68851972 -0.51251101 -0.2826103 4284967521
0.65928715 0.43630111 -0.28238899 4286403348
0.68972445 -0.51797533 -0.27869603 4286083158
0.69067723 -0.51768327 -0.27723929 4285688672
0.65935904 0.43652943 -0.27758968 4287916849
0.67899716 -0.53083265 -0.27082783 4286213123
0.689538 -0.51893747 -0.27260995 4286543177
0.65778655 0.43657848 -0.27254823 4285219876
0.68898678 -0.5185653 -0.26783481 4286543706
0.65792745 0.43648025 -0.26780099 4287194679
0.68688667 -0.51287168 -0.25816762 4285229409
0.67208618 0.027113218 -0.25756279 4282468423
0.66131556 0.41737336 -0.25756067 4285948724
0.66101778 0.41687968 -0.25241274 4285816890
0.68782544 -0.51744938 -0.24756241 4286477145
0.66065747 0.41732013 -0.246914 4286014259
0.68724197 -0.51248658 -0.24251501 4285163614
0.65952319 0.4132646 -0.24170817 4284568645
0.6603477 0.41576782 -0.24354543 4285422402
0.687244 -0.51243138 -0.23733345 4284835166
0.65758842 0.41262421 -0.2374787 4284633669
0.6866222 -0.51289147 -0.23257555 4284900961
0.67283833 -0.22236258 -0.23292607 4284178529
0.6547606 0.41138721 -0.231306 4284633159
0.65594447 0.41288728 -0.23328051 4285092930
0.68495876 -0.51603502 -0.2269401 4285952617
0.68668783 -0.51258826 -0.2276942 4284966499
0.65979338 0.13746309 -0.22681168 4283914322
0.65302926 0.41244435 -0.22767104 4284765235
0.68497968 -0.51561928 -0.22422662 4285754470
0.68568856 -0.51745957 -0.22235894 4286608730
0.6517638 0.41264597 -0.22265664 4285223476
0.6858077 -0.51752728 -0.21716037 4286278997
0.65098214 0.4124448 -0.21781613 4285290800
0.68417263 -0.51683837 -0.21224432 4286608473
0.68540126 -0.51980066 -0.21127126 4286805580
0.64961112 0.41096649 -0.21379258 4284371516
0.65104371 0.41332746 -0.21196157 4285553946
0.6831454 -0.51260847 -0.20767173 4285558891
0.65088868 0.41295648 -0.20741944 4285027626
0.67965704 -0.51160288 -0.20004007 4285756268
0.68134159 -0.51219648 -0.20281619 4285821548
0.65091449 0.41308466 -0.2025423 4285092908
0.67976028 -0.51229513 -0.1975006 4285952615
0.68045133 -0.51232201 -0.19788903 4285756013
0.6510675 0.41406167 -0.19869944 4285814796
0.67867893 -0.51203424 -0.19282314 4285953389
0.65125316 0.41445079 -0.19207372 4284829487
0.67643857 -0.51298648 -0.18703657 4286281320
0.65120471 0.41414019 -0.18740763 4284501542
0.67414427 -0.51173151 -0.18168917 4285624677
0.67542547 -0.51149398 -0.18392797 4285624423
0.65196568 0.41407529 -0.18257356 4284238371
0.65341818 0.4174825 -0.18247482 4286935819
0.67378515 -0.51292676 -0.17729716 4286213712
0.65434945 0.41754448 -0.17782123 4285882652
0.67403454 -0.51276922 -0.17268658 4285621584
0.65345728 0.41694364 -0.17297684 4285684496
0.67452914 -0.51253313 -0.16788478 4284964950
0.6754241 -0.51291448 -0.16619493 4285096026
0.65242708 0.41255125 -0.16781913 4283449914
0.67625082 -0.5125832 -0.16259974 4284374615
0.65298748 0.41719878 -0.16228591 4286604828
0.67876416 -0.5177514 -0.15723746 4287199051
0.67684406 -0.51226336 -0.15801305 4284111958
0.65191931 0.41259 -0.15760195 4283646262
0.67848057 -0.51740772 -0.15214215 4285884739
0.65129137 0.4123008 -0.15228619 4283580210
0.67641103 -0.5122661 -0.14776811 4284372307
0.65254384 0.41751724 -0.14746718 4287199003
0.67644686 -0.51251137 -0.14306951 4284372821
0.65318626 0.41773325 -0.14270121 4286673167
0.67838126 -0.51697057 -0.13717093 4285424707
0.65353173 0.41756848 -0.13762434 4285158418
0.67789561 -0.51719159 -0.13216802 4286411090
0.6535731 0.4175511 -0.13244131 4285156886
0.6785869 -0.51727527 -0.12719461 4285951560
0.6536569 0.4172726 -0.1272819 4284564762
0.67867267 -0.51254785 -0.12230554 4283847759
0.65408099 0.41742676 -0.12264284 4284565789
0.65514112 0.41991916 -0.12245646 4285750528
0.67780137 -0.5124774 -0.11731514 4283978323
0.65453351 0.41709206 -0.11759384 4283973921
0.65511209 0.41730112 -0.11782263 4284104984
0.6780417 -0.51255518 -0.11251444 4283716430
0.65387547 0.41725507 -0.11253557 4284695580
0.67550981 -0.51578331 -0.10783863 4286936117
0.67470479 -0.51378942 -0.1055111 4285028165
0.65250689 0.41751823 -0.10783832 4286407709
0.67422312 -0.51297373 -0.10184804 4284372550
0.6506303 0.41282287 -0.10377185 4282793007
0.64976233 0.4156006 -0.10071516 4285090816
0.672759 -0.51277632 -0.097830042 4285949765
0.64958334 0.41612017 -0.097010612 4286276616
0.64968973 0.41655821 -0.092558131 4286278677
0.67152959 -0.51174909 -0.087341681 4285556280
0.64977157 0.41610569 -0.088588312 4285486592
0.67354304 -0.51240999 -0.082302533 4285093954
0.65296763 0.41763172 -0.082702138 4285553169
0.67474353 -0.51284003 -0.079511657 4285093976
0.67636645 -0.51250339 -0.077002302 4283848018
0.65444618 0.41718742 -0.078837328 4283777824
0.65585709 0.41738081 -0.076674663 4283710765
0.68001604 -0.51854432 -0.07311362 4285356880
0.65484005 0.41930929 -0.07116098 4285158144
0.65680075 0.41738978 -0.072312087 4283646505
0.67407149 -0.53355199 -0.068096608 4286998044
0.65494508 0.41948333 -0.066835508 4284499206
0.65643018 0.41753417 -0.06275069 4283253294
0.67476434 -0.53376299 -0.058706101 4287522066
0.68140543 -0.51758325 -0.057517819 4284637011
0.69052941 -0.46205848 -0.055437222 4286018676
0.67455679 -0.40223059 -0.05648075 4285229934
0.66288269 -0.37122408 -0.055380538 4285229168
0.66652763 -0.37249777 -0.057809047 4284111713
0.66279596 -0.36737242 -0.056378286 4284309092
0.65977561 -0.36269158 -0.055017754 4284769384
0.65603435 0.41796985 -0.05742085 4283582502
0.68213153 -0.51791376 -0.052250821 4284440407
0.69015986 -0.4650327 -0.054319441 4285888631
0.65750599 -0.35726702 -0.052376255 4285822329
0.65897858 -0.35456449 -0.051116288 4285427060
0.6622017 -0.35432014 -0.051490549 4284703848
0.6556797 0.41712257 -0.052463785 4283844396
0.68169034 -0.51749218 -0.047386713 4284966234
0.66694152 -0.35160533 -0.048068333 4284770674
0.65474975 0.41664043 -0.046448514 4283452219
0.65558732 0.41769725 -0.048099507 4283976746
0.68016362 -0.51809555 -0.04351427 4287395669
0.67783451 -0.51254338 -0.04239206 4284704095
0.66608435 -0.35122272 -0.041919626 4285891461
0.65560877 0.4194667 -0.042024907 4285487360
0.67609018 -0.51230103 -0.037672766 4285163361
0.67742354 -0.47759309 -0.037296444 4285491057
0.65840805 -0.44075716 -0.035774186 4286022020
0.66291291 -0.44232589 -0.037914585 4286021764
0.65816587 -0.43683037 -0.036258478 4285824384
0.65512639 0.41970491 -0.038050972 4285684747
0.67497897 -0.5128938 -0.031606883 4286082908
0.67584223 -0.51263005 -0.032612514 4286016859
0.65874225 -0.4297595 -0.0320522 4285823612
0.66272354 -0.42930594 -0.032310102 4285955457
0.65359902 0.41785175 -0.032737549 4285816857
0.67583764 -0.51270515 -0.027698325 4286674787
0.67476249 -0.35487789 -0.029171914 4285889664
0.66389799 0.39446485 -0.025584569 4278393125
0.66110468 0.39592019 -0.025501311 4278524711
0.66267771 0.42712367 -0.025727307 4285887247
0.67750859 -0.51279753 -0.022585984 4285623397
0.66235268 -0.43216008 -0.021871489 4285498775
0.71699905 -0.42673102 -0.022704877 4285888633
0.72181672 -0.42722574 -0.021716679 4282795079
0.72588539 -0.42666268 -0.021030366 4281937716
0.70887059 -0.40569472 -0.021553108 4278275976
0.71197987 -0.40873662 -0.021647656 4278210439
0.70836037 -0.40398031 -0.021806382 4278406786
0.69866842 -0.3932085 -0.021229377 4279129479
0.69418395 -0.38876942 -0.021631166 4279063172
0.68245429 -0.37247881 -0.02124016 4280385970
0.68028623 -0.36722052 -0.020911342 4281689475
0.67812032 -0.36255622 -0.022556309 4284772986
0.6787464 -0.35759205 -0.022803744 4283918192
0.66023201 0.42456904 -0.021747643 4282467591
0.67911226 -0.51282007 -0.017607313 4285755498
0.66398537 -0.43703929 -0.019144569 4283338938
0.7262044 -0.4268983 -0.017546551 4283912791
0.67553455 -0.15767434 -0.018255569 4278198334
0.67540151 0.021979023 -0.019031085 4278197559
0.67144734 0.062784225 -0.017446915 4278198074
0.6720925 0.067838356 -0.017513702 4278198074
0.67255127 0.072765559 -0.017504357 4278263609
0.6729759 0.082543418 -0.017472874 4278198330
0.6720047 0.087270588 -0.017427515 4278198074
0.67445421 0.10261792 -0.017155325 4278263866
0.68029416 -0.5150432 -0.012856111 4285951332
0.67983943 -0.51468962 -0.012852088 4286148711
0.65682113 0.42289668 -0.012164067 4284112914
0.67994082 -0.51475453 -0.005153358 4285824121
0.68134695 -0.51225466 -0.0075791776 4285100143
0.66019195 0.42469475 -0.007852803 4282204160
0.67979068 -0.5142464 -0.0029650182 4285561721
0.6809907 -0.51254416 -0.0025129179 4285297780
0.67525858 -0.067257278 -0.0016799476 4278198847
0.66035956 0.42429245 -0.0031807672 4280823312
0.68039072 -0.51265299 0.0027386362 4285758067
0.6600737 0.42380714 0.0027787387 4281482011
0.68055779 -0.51270568 0.0071043544 4285954934
0.67913395 -0.50705463 0.0072000851 4285494904
0.70095402 -0.41073516 0.0099454671 4284114273
0.69800246 -0.40513605 0.0098549277 4284376162
0.69830447 -0.40218842 0.0093126446 4284639593
0.66898012 -0.21728124 0.0073688705 4285427570
0.6690622 -0.21251224 0.0071754046 4285297010
0.6672731 -0.082525499 0.0069602188 4284967786
0.6619035 0.037367336 0.0069623147 4284770407
0.64971077 0.37870178 0.0077368557 4283780935
0.65875679 0.42220888 0.0077498555 4281153050
0.67884278 -0.507065 0.010551128 4285495159
0.68221301 -0.47813329 0.011347041 4282273627
0.698376 -0.40523475 0.010928169 4284244578
0.70129043 -0.4088859 0.011012793 4284114275
0.69833362 -0.40329802 0.010916084 4284966254
0.69407117 -0.39635953 0.010783121 4284639599
0.65778059 0.42255929 0.012645436 4282797073
0.65764087 0.42224014 0.017401643 4282731031
0.68430233 -0.50005442 0.02325134 4278199617
0.68589932 -0.50075936 0.024445623 4278199357
0.65736055 0.4224335 0.022430781 4283519253
0.68458271 -0.50114137 0.02783151 4278198586
0.68563879 -0.50065929 0.02695198 4278198843
0.65911937 0.42261553 0.026732493 4282072854
0.66034228 0.42259213 0.028815337 4280297753
0.68333095 -0.5006507 0.03186769 4278198328
0.66110414 0.42317599 0.032574061 4281085715
0.68120825 -0.50081813 0.038580656 4278198069
0.66260767 0.42246687 0.037408799 4279640603
0.68255508 -0.50151157 0.042569086 4278328884
0.66401368 0.42203435 0.04171421 4279114783
0.66442603 0.42743492 0.042275209 4285295374
0.66519904 0.42699987 0.04353049 4282730505
0.68629873 -0.50592864 0.049015228 4278329400
0.68352252 -0.50250053 0.04565981 4278329142
0.66446155 0.42820475 0.047960263 4286214921
0.66540092 0.42646226 0.046194211 4282203409
0.68864584 -0.50718331 0.053059254 4278395195
0.6633839 0.42743075 0.052403506 4285359882
0.68971682 -0.51085579 0.059093274 4278331980
0.69033802 -0.51096308 0.057361215 4278462278
0.68938458 -0.50868088 0.057501256 4278462277
0.66265297 0.42763963 0.057654988 4285952011
0.68961334 -0.51090574 0.063248508 4278397780
0.6901325 -0.51082253 0.060907215 4278332240
0.66220379 0.42761242 0.06227529 4285755144
0.68939978 -0.51167411 0.067504816 4278463571
0.69002312 -0.51121455 0.066867515 4278463572
0.66262752 0.42829046 0.067262165 4286149893
0.68883479 -0.51154661 0.072321981 4278529360
0.66106784 0.42703035 0.073112011 4284703491
0.68834561 -0.51190352 0.077159531 4278594897
0.65997571 0.42668983 0.078821525 4284441116
0.66088068 0.42696169 0.077011175 4283782916
0.68931293 -0.51545954 0.084348127 4278661462
0.6888507 -0.51292902 0.082605891 4278595411
0.66101938 0.42761028 0.082669653 4285426454
0.68907547 -0.51578856 0.088345684 4278858325
0.66245234 0.42814493 0.087769508 4285229844
0.68944156 -0.51637685 0.093073055 4279055702
0.69005173 -0.51639563 0.093605071 4278989653
0.66218036 0.42767704 0.092783459 4285097998
0.68941635 -0.51676023 0.097835183 4279186773
0.66202712 0.42702883 0.097203128 4284309275
0.68898058 -0.51702982 0.10289174 4279515218
0.69048268 -0.51547599 0.10163999 4278792533
0.66126162 0.4270685 0.10243757 4285953045
0.68849361 -0.51741064 0.10748478 4280961113
0.66066366 0.42352343 0.10808279 4280429856
0.68918854 -0.51935226 0.11210238 4282407227
0.69189 -0.30764711 0.11205735 4278467426
0.6890378 -0.30092555 0.11086215 4278598755
0.69063604 -0.30352816 0.11116546 4278598754
0.6888032 -0.29838505 0.11195421 4278533477
0.68810189 -0.29124808 0.11178169 4278467941
0.68759531 -0.28825459 0.11162927 4278599013
0.66166121 0.4224917 0.11289602 4279838243
0.69191194 -0.52093536 0.11754443 4282474327
0.69786048 -0.32200772 0.11756273 4278467941
0.69690126 -0.31794265 0.11670038 4278467684
0.69472802 -0.31399927 0.11565672 4278599270
0.69520479 -0.31297582 0.11630645 4278599270
0.6636222 0.42772549 0.11785378 4285559061
0.69235003 -0.5220924 0.1223839 4284512857
0.7052263 -0.33712626 0.12466145 4278599527
0.70262748 -0.33260885 0.12153014 4278533991
0.70100689 -0.32699272 0.1210883 4278337383
0.70061797 -0.32498154 0.12235077 4278534762
0.69305652 -0.28125226 0.12233908 4278535790
0.66305125 0.42268088 0.12267204 4279772200
0.6928671 -0.52205819 0.12719192 4284643929
0.69420928 -0.51762551 0.12855497 4278860123
0.70608652 -0.34777069 0.12758791 4278533990
0.70531356 -0.3446632 0.12674817 4278533991
0.69540602 -0.28046113 0.12511957 4278667633
0.69632256 -0.27737933 0.127003 4278733426
0.69468921 -0.27176696 0.12747115 4278799219
0.69561177 -0.27324209 0.1269639 4278799219
0.69273657 -0.26750088 0.12671223 4278799219
0.68972951 -0.26215151 0.12916866 4278865267
0.69171268 -0.26288766 0.12696366 4278865010
0.68966055 -0.25729808 0.12909114 4278930290
0.68934208 -0.25269637 0.12820677 4278798447
0.68933982 -0.24716997 0.12819847 4278601068
0.67411429 0.026907396 0.1263546 4279059293
0.6737296 0.032636806 0.12552656 4279124573
0.67217845 0.038232505 0.12635462 4279124573
0.66278392 0.42271531 0.12740535 4279838501
0.69202071 -0.51745027 0.13200398 4279713108
0.69875622 -0.3700999 0.13260603 4278664805
0.69771188 -0.36706236 0.13159099 4278664805
0.6972667 -0.36210707 0.13160506 4278533734
0.69831455 -0.35736468 0.13143565 4278533990
0.69953912 -0.35381043 0.1322567 4278534503
0.70198345 -0.35282022 0.13077971 4278665318
0.7057026 -0.35100707 0.13052471 4278599783
0.70622885 -0.34950405 0.13077769 4278468710
0.6875059 -0.24578264 0.13056353 4278732655
0.68680763 -0.24215612 0.13122609 4278799219
0.68314314 -0.23572826 0.13245809 4278733940
0.68593198 -0.23822606 0.1310491 4278799219
0.68296134 -0.23185007 0.13204885 4278865011
0.68445146 0.042271439 0.13184908 4279128698
0.68525106 0.044205278 0.13193782 4279128698
0.68708128 0.047585942 0.13261196 4279194490
0.68214083 0.08744473 0.13140838 4279126634
0.66352296 0.42241934 0.13253862 4279707685
0.69194847 -0.51765865 0.13709678 4279844442
0.70174158 -0.37255356 0.13507125 4278599783
0.67994046 -0.23064561 0.13765839 4278996596
0.68053937 -0.23074907 0.13598844 4278996597
0.67960787 -0.22737153 0.13857861 4279192174
0.6748426 -0.027008481 0.13866389 4279584352
0.67614383 -0.022665031 0.13705117 4279453280
0.67586428 -0.017357726 0.13575964 4279387745
0.687886 0.0072954744 0.13717122 4278997370
0.68838298 0.012572552 0.13644171 4278997371
0.68652189 0.01753773 0.13590799 4278997628
0.68657696 0.022520073 0.13574988 4279129212
0.68459338 0.029652759 0.13568439 4279260797
0.68555212 0.02659207 0.13575058 4279195004
0.68470097 0.032218426 0.13561822 4279129468
0.68516666 0.03297177 0.13568439 4279195004
0.68417454 0.036941409 0.13535367 4278998139
0.67603976 0.16250783 0.1375246 4278924623
0.67518777 0.16703077 0.13751879 4278924623
0.66420001 0.42274252 0.13747732 4279707429
0.69187981 -0.51764292 0.14203009 4279976278
0.67819673 -0.22538702 0.14191467 4278930289
0.67880863 -0.22237444 0.14211632 4278798960
0.68684936 -0.21699382 0.14242338 4279715684
0.67529058 -0.028290382 0.14100036 4279452766
0.68707347 -0.0025048885 0.14122015 4278865526
0.686786 0.0025713097 0.14047372 4278866039
0.68730158 0.0055558607 0.14047372 4278866555
0.66380256 0.42218834 0.14258972 4279772964
0.69170874 -0.51800758 0.14732857 4281028954
0.67875862 -0.22082326 0.14545146 4278798447
0.67926276 -0.21790463 0.14545146 4278732654
0.68829972 -0.21606065 0.14608206 4279847013
0.67986774 -0.2144023 0.14545146 4278797934
0.68069011 -0.21158095 0.14551862 4278732142
0.68880135 -0.2120834 0.14727923 4279649635
0.68810707 -0.20755868 0.14733091 4279650150
0.67942917 -0.19117987 0.14872739 4278534242
0.67742795 -0.18727617 0.14737123 4278600295
0.67358488 -0.18219247 0.14761148 4278665831
0.6774891 -0.18349572 0.14587805 4278666346
0.66814715 -0.17554294 0.14760052 4278600037
0.67202604 -0.17757213 0.14648065 4278665832
0.66760743 -0.17363268 0.14800569 4278599781
0.67151868 -0.17260998 0.14608154 4278600294
0.67270392 -0.16736776 0.14655866 4278469222
0.67630619 -0.16699283 0.1456877 4278534761
0.67763931 -0.16258018 0.14693072 4278468967
0.68234831 -0.1615722 0.1458986 4278469225
0.68821615 -0.16267593 0.14690062 4279452253
0.68336415 -0.15825683 0.14694785 4278469224
0.6695497 -0.090464056 0.1465553 4278665058
0.66979265 -0.088486075 0.14682251 4278664801
0.66931707 -0.081454046 0.14884207 4279187025
0.66477704 0.42658994 0.14673544 4284045320
0.69235814 -0.51748884 0.15273236 4280043359
0.68801236 -0.20686641 0.15144601 4279453027
0.68646646 -0.15603191 0.1505686 4279254876
0.68488348 -0.15067053 0.15289794 4279320412
0.68557763 -0.15268248 0.15176882 4279320412
0.68359047 -0.14758991 0.15282649 4279385689
0.68207544 -0.14250195 0.15249056 4279385433
0.6794703 -0.13604957 0.15053697 4279385946
0.68096161 -0.13778293 0.15275662 4279385176
0.67899954 -0.13164645 0.1517387 4279319382
0.67894721 -0.12760168 0.15245156 4279319381
0.67914933 -0.12292738 0.15257473 4279319381
0.68028557 -0.12085438 0.1530084 4279318867
0.67958194 -0.11785909 0.15239488 4279319124
0.68032157 -0.11702607 0.15259095 4279319124
0.67986995 -0.10789163 0.15398559 4279253590
0.67980832 -0.10106291 0.15331516 4279056724
0.68069333 -0.10323106 0.15249212 4279122260
0.67868853 -0.097674266 0.15124348 4279187797
0.673787 -0.091131501 0.15097876 4279187795
0.67588139 -0.093508199 0.15078121 4279187797
0.66988266 -0.08579395 0.15031609 4279253588
0.67195672 -0.088202976 0.15068424 4279253588
0.66911513 -0.082470536 0.15027192 4279253074
0.66634655 -0.077057697 0.15099575 4279253330
0.66706121 -0.073147088 0.15101969 4279253588
0.66956687 -0.067900807 0.15092354 4279122774
0.67156065 -0.065312624 0.15089127 4279254360
0.68041289 -0.056609742 0.15051919 4278535014
0.68312907 -0.052153662 0.15189429 4278600807
0.68422228 -0.047685135 0.15217595 4278600807
0.68464547 -0.044270061 0.15214007 4278666600
0.68593234 -0.041720785 0.15208963 4278600807
0.68720728 -0.037540279 0.15244469 4278535271
0.68836921 -0.032709666 0.1522489 4278600810
0.71142024 0.052697912 0.1538696 4279394956
0.70692629 0.058359191 0.1532343 4279526283
0.71073008 0.055978954 0.15325247 4279526285
0.68036216 0.24405704 0.15313816 4278923081
0.66542846 0.42712098 0.15230647 4285690653
0.69355559 -0.51774794 0.15804364 4279911770
0.68082523 -0.11573616 0.15504722 4279253075
0.6807664 -0.11260315 0.1563058 4279253077
0.67995679 -0.10934948 0.15739904 4279253590
0.68101674 -0.10798879 0.15562066 4279253590
0.68959075 -0.031251237 0.15507269 4278732139
0.69077867 -0.030155733 0.15529257 4278732139
0.69216865 -0.02694577 0.15653911 4278797932
0.69411802 -0.023903882 0.15697235 4278732396
0.69712555 -0.021277824 0.15687992 4278798188
0.69831872 -0.019236693 0.157528 4278995309
0.68811709 0.20878325 0.15728545 4278992992
0.6827901 0.21303518 0.15639712 4279188834
0.68656695 0.21096079 0.15738398 4279254881
0.68040848 0.22878678 0.15664802 4279123554
0.68027514 0.23312409 0.15741286 4279058021
0.68135685 0.23647958 0.15784037 4279057761
0.68047476 0.24743736 0.15657715 4278988874
0.67480057 0.25715879 0.15635064 4278923079
0.6752913 0.25819147 0.15649149 4278923079
0.67492437 0.26107278 0.15713461 4278857540
0.69503874 -0.520419 0.16301233 4280700003
0.69473761 -0.51915473 0.16246958 4280239969
0.67899227 0.2499465 0.16007109 4279252046
0.67878634 0.25115129 0.16007109 4279054667
0.67600614 0.267416 0.16007109 4278988612
0.67737103 0.27184805 0.16114986 4278988356
0.68029028 0.27497426 0.16251953 4279119942
0.67854226 0.27743188 0.16098377 4279054149
0.68056411 0.27891204 0.1618904 4278988614
0.67966169 0.28111643 0.16135956 4278988356
0.68130112 0.28294235 0.16192001 4278988356
0.69532734 -0.52197164 0.16814971 4285762410
0.68797791 0.28469735 0.16644534 4279252560
0.68760073 0.28755954 0.16656063 4279187024
0.68880349 0.29256004 0.16682969 4279252815
0.68886197 0.29769889 0.16721673 4279384401
0.69001937 0.29736802 0.16672896 4279252044
0.63809925 0.43695083 0.16882716 4285582077
0.64050627 0.43630263 0.16646123 4285516798
0.64753151 0.43619567 0.16793703 4285713406
0.69637465 -0.5175879 0.17241441 4279452778
0.71605545 0.15315297 0.17425315 4283475671
0.71169519 0.15805146 0.17498291 4283597476
0.7152161 0.16312657 0.17367148 4283410130
0.71679372 0.18756887 0.17498291 4282810793
0.68906337 0.30125976 0.17049579 4280109151
0.69049752 0.30453268 0.17094064 4279913056
0.69137335 0.30828354 0.17170876 4279913314
0.69194436 0.31267858 0.17350723 4280438376
0.69529736 0.31218556 0.17489129 4280634980
0.63267583 0.42851922 0.17280306 4285582076
0.63361323 0.43695024 0.17252505 4285451261
0.63693196 0.43666446 0.17019781 4285517054
0.69708902 -0.51727998 0.17720304 4279256687
0.72759712 -0.42254215 0.17765017 4282872453
0.72623867 -0.41907066 0.17856586 4283135109
0.7196368 -0.41104865 0.17680053 4282609282
0.72229815 -0.4135859 0.17815483 4282871940
0.71470183 -0.40100738 0.17731436 4282477444
0.71612346 -0.40342548 0.17734696 4282543492
0.71542037 -0.3971121 0.17865261 4283198850
0.71582973 -0.39211628 0.17841862 4282409080
0.71673638 -0.38755465 0.17791426 4281818491
0.71710342 -0.38249323 0.17779979 4282147713
0.71749687 -0.37729293 0.1775692 4282477190
0.71868664 -0.37235466 0.17804565 4282609550
0.71969563 -0.36819959 0.17830132 4283005081
0.72126859 -0.36647394 0.17781165 4282875037
0.725407 -0.36213237 0.17820624 4282875033
0.72403818 -0.35767448 0.17717469 4283135888
0.72531331 -0.35676935 0.17731339 4283267216
0.72374284 -0.35244623 0.17808041 4283202197
0.72259814 -0.34724578 0.17766631 4282939027
0.72164339 -0.34249014 0.17711493 4282873490
0.72240072 -0.33780441 0.17725576 4282873745
0.72179025 -0.33258665 0.17709598 4283071121
0.72118473 -0.32766595 0.1772487 4283268245
0.72206622 -0.32256243 0.1772487 4283202193
0.72294742 -0.31746128 0.1772487 4283070350
0.72354591 -0.25284478 0.17857607 4283334293
0.71353078 -0.15832064 0.17747439 4283598496
0.71524364 -0.15684754 0.17599964 4282873229
0.71406031 -0.15268981 0.1782241 4283730339
0.71813375 -0.1071071 0.17844126 4283598240
0.71860743 -0.10265362 0.17820224 4283465627
0.72013307 -0.10139105 0.1770011 4282479764
0.72036415 -0.05162235 0.17918299 4283532450
0.70674831 0.12256404 0.17587394 4284055963
0.70849812 0.1278342 0.17608631 4283924890
0.71180981 0.13308272 0.1758606 4283662234
0.71264911 0.13735785 0.1761238 4283597215
0.71399546 0.14265253 0.1774262 4284055452
0.71378666 0.14709178 0.17706005 4283924124
0.71627545 0.15173082 0.1752203 4283209924
0.71154994 0.15723385 0.17596836 4284055197
0.71209127 0.16265965 0.17606553 4284054683
0.71342361 0.1676228 0.17594892 4283793054
0.71475333 0.17158175 0.1759547 4283596448
0.71532446 0.17392226 0.17550297 4283204007
0.71638066 0.1777577 0.17589892 4282810278
0.71552306 0.18252714 0.17606553 4283399065
0.71640545 0.18763593 0.17606553 4283530393
0.70576382 0.21435957 0.17838971 4285958549
0.70620173 0.22252412 0.17707244 4284972429
0.69687396 -0.51748723 0.1828049 4279520627
0.73767704 -0.43736792 0.18248022 4282937738
0.73486745 -0.43134713 0.18162504 4283135627
0.73612458 -0.4322589 0.18231368 4283331979
0.73396403 -0.42809668 0.18266715 4283857294
0.73045099 -0.42399442 0.1824017 4283987593
0.72364318 -0.41588718 0.18123361 4284250508
0.71886981 -0.4062503 0.18112107 4285761158
0.72192568 -0.36275065 0.18188477 4285435804
0.71957928 -0.33174321 0.18188155 4285632667
0.72070915 -0.31275371 0.18243994 4286027680
0.72090393 -0.30750918 0.18231843 4286029223
0.72097355 -0.30222294 0.18216583 4285766567
0.72163224 -0.29710504 0.18203034 4285175719
0.7237168 -0.29230487 0.1823612 4285307050
0.72580159 -0.28736478 0.18198785 4284452776
0.72658342 -0.28254664 0.18263584 4285109159
0.72625709 -0.27765822 0.18218389 4284321186
0.72573256 -0.27372697 0.18175457 4283796129
0.72374636 -0.26758009 0.18283743 4285503396
0.72250557 -0.26233619 0.18205205 4284846500
0.72171688 -0.25753346 0.18276389 4285898663
0.72606844 -0.24699411 0.18422291 4284641915
0.72029161 -0.14505696 0.18478911 4284776841
0.72009009 -0.14387792 0.18478911 4284777615
0.72048533 -0.050592899 0.18226026 4285110708
0.72149605 -0.047113091 0.1826129 4284849076
0.72157437 -0.042093907 0.18261153 4284454066
0.72197676 -0.037371207 0.18294349 4284847279
0.72231901 -0.032527592 0.18282011 4284650156
0.72229135 -0.027675427 0.18260574 4284649901
0.72312242 -0.022863925 0.18260573 4284058793
0.72311288 -0.017700978 0.18224376 4283797934
0.72240454 -0.012246725 0.18253182 4283995314
0.72189665 -0.0071123866 0.18287481 4284520370
0.7221064 -0.0023196735 0.18272081 4284519857
0.72206736 0.0024634558 0.1825048 4284060078
0.71940076 0.0088563934 0.18317497 4284980149
0.72124285 0.0066350051 0.18211941 4283599785
0.71846658 0.012468634 0.18230249 4284190377
0.72017157 0.010230377 0.18231544 4283599528
0.71634841 0.017507831 0.1829896 4285175980
0.71638358 0.022675669 0.18267545 4284980663
0.71583331 0.027351955 0.1823318 4284257716
0.71247101 0.046960082 0.18355927 4284254362
0.72950405 0.05239059 0.18220836 4281038748
0.73086476 0.053661071 0.18142441 4282093750
0.73212594 0.057653796 0.18240224 4281763500
0.73420471 0.06209584 0.18324153 4281697963
0.73517215 0.063648671 0.18207227 4281833402
0.72957414 0.06558609 0.18470547 4283403944
0.73022974 0.06754645 0.18494481 4283140515
0.72056258 0.077932425 0.18368015 4282873221
0.71863031 0.087788448 0.18362013 4283462272
0.69849813 0.31250587 0.1822449 4285101946
0.70186865 0.31006315 0.1815318 4285365887
0.69477117 0.31858 0.18282369 4285298809
0.69663101 0.31650031 0.18294336 4285364342
0.68929219 0.32398343 0.18142176 4284378995
0.6929124 0.32253671 0.18273102 4285233017
0.68278146 0.32830811 0.18236397 4284441962
0.68769318 0.32650557 0.18288393 4285166195
0.67747247 0.33212328 0.18263337 4283918706
0.68041849 0.33056 0.18248487 4282864993
0.6760838 0.33544153 0.18421011 4284576121
0.69745636 -0.51787502 0.18752101 4279914094
0.74303073 -0.45282808 0.18773144 4283003535
0.74237245 -0.44798329 0.18739389 4283463056
0.74138743 -0.44290522 0.18753999 4284645270
0.73861754 -0.43723059 0.18626347 4284184721
0.72560531 -0.24670537 0.18668026 4284908692
0.72613221 -0.24247885 0.18738745 4285236883
0.7279439 -0.23772749 0.18772621 4285826703
0.72800487 -0.23286733 0.18737331 4285695888
0.7275098 -0.22757602 0.18743306 4285236884
0.7260502 -0.22227201 0.18747199 4285171607
0.72619665 -0.21747214 0.18740587 4285040797
0.72635478 -0.21249917 0.18767083 4285105561
0.72561026 -0.20829679 0.1870511 4285565849
0.72265118 -0.20232058 0.18722405 4285699234
0.72340381 -0.19757724 0.18767369 4285173923
0.72507423 -0.19510131 0.18627273 4284908949
0.72411323 -0.19345193 0.18814224 4285764775
0.72567987 -0.19134051 0.18758209 4285436070
0.7261489 -0.18765472 0.18811633 4285502633
0.72596055 -0.18252413 0.18829685 4285502631
0.72431809 -0.1770575 0.18822365 4285698723
0.72545624 -0.17957409 0.18829724 4286027942
0.72468042 -0.1728757 0.18839349 4285305765
0.72537202 -0.17196529 0.18840949 4285240228
0.72455114 -0.16689344 0.18689831 4284517539
0.72476566 -0.16449818 0.18755388 4284386212
0.72010136 -0.14873001 0.18704142 4285830562
0.72539163 -0.1357386 0.18712965 4285172892
0.72584814 -0.13241771 0.18801838 4284975254
0.7263034 -0.12741795 0.18960369 4285829281
0.7246753 -0.12244149 0.18877746 4285961379
0.72568512 -0.12193302 0.18823023 4285829792
0.72304899 -0.11747918 0.1879528 4285961635
0.72134441 -0.11278605 0.18747075 4285830306
0.7206102 -0.10776615 0.18712966 4285435550
0.70930427 0.032986205 0.18761846 4285568934
0.71000338 0.040287428 0.18522467 4284318870
0.71194535 0.047482211 0.18737012 4284383116
0.71230924 0.051944159 0.1872178 4284512642
0.71914124 0.060707033 0.18902424 4282413708
0.73046321 0.069439605 0.1863779 4283004811
0.71791869 0.073446117 0.18862011 4283071379
0.71721274 0.077479586 0.18733075 4283400600
0.71753335 0.082543001 0.18762532 4283597463
0.71678579 0.087492399 0.18765077 4283793554
0.71334231 0.092998505 0.18897113 4286026902
0.71636605 0.091751292 0.18691002 4283463815
0.71333289 0.097458653 0.18823068 4285172369
0.71258759 0.10213879 0.18806405 4285500563
0.71257377 0.10697386 0.18763341 4285500306
0.71392798 0.11239877 0.18832161 4285105552
0.7139653 0.11761656 0.18835911 4285630607
0.67634761 0.34209996 0.18727247 4284576127
0.63276696 0.43668413 0.18659902 4285385980
0.63511282 0.43730825 0.18973564 4285386492
0.69870216 -0.51874781 0.19237201 4279848561
0.7430647 -0.45731607 0.19239794 4283659925
0.7422452 -0.45304734 0.19243591 4285564828
0.71526402 0.053230543 0.19135015 4284247919
0.71676469 0.057300288 0.19148397 4285237644
0.7208975 0.063329659 0.19086592 4283794070
0.6788919 0.34817258 0.19125424 4283918455
0.68181801 0.35323572 0.19416563 4283392627
0.63855618 0.43653223 0.19248743 4285582844
0.70014304 -0.5204339 0.1988906 4280372841
0.69971102 -0.51986814 0.19740096 4280241771
0.73943639 -0.46406373 0.19781233 4283331483
0.74236834 -0.46223173 0.19761081 4285040542
0.68240565 0.35737842 0.19674328 4282539888
0.68645662 0.35736281 0.19947758 4285165431
0.68547344 0.36167398 0.19941394 4282212213
0.64345735 0.43745714 0.19635856 4285845503
0.64699864 0.43725744 0.19856954 4285779710
0.70038515 -0.52072227 0.20277831 4280440684
0.73440921 -0.46932578 0.20311461 4281628064
0.73690253 -0.46716037 0.20219253 4283792544
0.68728238 0.36258388 0.20257562 4282868085
0.68725121 0.36732203 0.20372799 4281820286
0.64793789 0.43827039 0.20144033 4285714173
0.65449595 0.43812427 0.20125388 4285714687
0.65799403 0.43742311 0.20085338 4285779451
0.69947124 -0.51899105 0.20820631 4280243573
0.73547 -0.47073394 0.20835555 4283069081
0.73471165 -0.4692958 0.20669541 4283660432
0.6903491 0.36629114 0.20755087 4283130743
0.66048521 0.43823758 0.20547803 4285911548
0.69899499 -0.51844651 0.21295285 4280376178
0.73482436 -0.4730629 0.21252301 4283923100
0.69219905 0.37208873 0.21244346 4282146678
0.67112643 0.42259946 0.21228039 4280101926
0.69784313 -0.51862127 0.21766019 4283400324
0.73313415 -0.47739539 0.21722919 4280702843
0.69443631 0.37334979 0.21572067 4282277235
0.67306674 0.42259645 0.21735987 4279773744
0.69781661 -0.51862156 0.22245485 4283990920
0.73233151 -0.47775033 0.22270805 4279845988
0.69753343 0.37769905 0.22224067 4281818229
0.70039636 0.37565541 0.22294894 4284577156
0.67407089 0.42280397 0.22181518 4279970607
0.69702971 -0.51837748 0.22749491 4285502864
0.7309131 -0.47737628 0.22715534 4279712602
0.70149279 0.37622941 0.22757111 4286026405
0.67484009 0.42383522 0.22613443 4280036919
0.67570513 0.42686239 0.22925036 4283192878
0.69813359 -0.51570922 0.23226976 4280641677
0.69474107 -0.51364243 0.23423457 4280773262
0.69703603 -0.51432055 0.23355186 4279987096
0.73067141 -0.47573143 0.2307052 4279776070
0.70263457 0.37766075 0.23206069 4285173664
0.67774975 0.42776906 0.23308352 4283324467
0.69238782 -0.51292348 0.23801807 4283601058
0.73079902 -0.4721548 0.23729534 4285629312
0.70375878 0.37839168 0.23712556 4281556086
0.67827636 0.42754295 0.23744033 4283127597
0.69380891 -0.51124918 0.24080148 4280844202
0.69714957 -0.51214433 0.24303335 4280385198
0.70140284 -0.51089907 0.24379593 4280385710
0.72953105 -0.47285855 0.24098374 4281685089
0.73218495 -0.47219458 0.24317285 4285300349
0.70492578 0.37987942 0.24112344 4281094511
0.7065928 0.38170728 0.24383208 4281163644
0.6791895 0.42776862 0.24197477 4282666797
0.70084018 -0.51111549 0.24716716 4280321202
0.73174572 -0.47261211 0.24748628 4283328111
0.70725298 0.38244954 0.24759839 4280966266
0.68271643 0.42781979 0.24707372 4280235056
0.70194244 -0.51212263 0.25199577 4280519095
0.70573562 -0.51056677 0.25268742 4280518838
0.7024008 -0.50973284 0.25041083 4280453302
0.73129404 -0.47219732 0.25248849 4282473062
0.70881355 0.3780179 0.25280407 4285431425
0.6829136 0.42729703 0.25241354 4280300336
0.70971966 -0.52357507 0.25920808 4281305777
0.71039981 -0.522416 0.25863969 4280780724
0.73145658 -0.47162896 0.25764757 4282012514
0.70699519 0.37782893 0.2577503 4283000177
0.68301839 0.42786252 0.25727934 4281022503
0.70914197 -0.52277809 0.26114482 4282093750
0.71263778 -0.52182317 0.2632373 4281044155
0.73239613 -0.47188839 0.26272357 4282473064
0.70587176 0.37727496 0.26224101 4282738036
0.68286574 0.42742574 0.26213712 4281812531
0.7154597 -0.52532178 0.26916507 4281830584
0.71353638 -0.52182043 0.26723793 4281634751
0.73182911 -0.47172311 0.26745495 4281487197
0.70631117 0.37690735 0.26689005 4283460725
0.68384856 0.42758912 0.26725847 4281220146
0.68501538 0.42910641 0.26980475 4281415689
0.71806061 -0.52694803 0.27305791 4282290620
0.7307986 -0.47133017 0.27247533 4280238678
0.70855951 0.37805572 0.27202627 4283394677
0.68456656 0.42797419 0.27242061 4281679648
0.68533134 0.42749983 0.27265739 4280759607
0.71855628 -0.52699608 0.2771233 4282619070
0.73182499 -0.47081947 0.27841428 4281027424
0.70918977 0.37789989 0.27540749 4283657594
0.7088632 0.38210618 0.27670023 4280043616
0.71259212 0.38274229 0.27948487 4280110181
0.68477952 0.42536676 0.2751801 4280037439
0.68619984 0.42773405 0.27740771 4280759340
0.71674454 -0.5267154 0.28330863 4284590023
0.72949731 -0.46892515 0.28092402 4281686388
0.73313582 -0.46935886 0.28256536 4284576625
0.71292979 0.38283071 0.28169194 4280241509
0.71537739 0.3824023 0.28433758 4281028709
0.68816608 0.42746338 0.28237292 4280365617
0.71395934 -0.52288502 0.28810856 4282750653
0.71588826 -0.5239656 0.28618178 4282160318
0.73570031 -0.47031209 0.28687188 4285497731
0.71731418 0.38195086 0.28775808 4283000696
0.68931234 0.42772326 0.28643709 4280431419
0.69029546 0.42729023 0.28875509 4280168762
0.71188378 -0.52249712 0.29283702 4284393156
0.70913738 -0.51717186 0.29447889 4281371322
0.7374776 -0.47171798 0.29309765 4282736487
0.7185955 0.38272986 0.29233208 4283198330
0.68853468 0.42786536 0.29248413 4281154867
0.69168347 0.42757779 0.2907317 4280102970
0.70783222 -0.51774776 0.29745084 4282617268
0.73806041 -0.4726713 0.29771906 4282210401
0.71917647 0.382819 0.29543725 4282868854
0.72081029 0.38506842 0.2987805 4280306276
0.6877017 0.42720276 0.29750735 4281878832
0.70686358 -0.51677471 0.30228278 4282616241
0.73750347 -0.47345361 0.30281487 4280501856
0.72179455 0.38283649 0.30241856 4284381058
0.68811995 0.42769673 0.30239296 4283127855
0.70653534 -0.51717246 0.30795559 4285176753
0.74393415 -0.47513089 0.30910707 4281094248
0.73744875 -0.47416642 0.30664998 4280173665
0.7431953 -0.47332016 0.30756843 4285365621
0.72126764 0.38225561 0.30732083 4284250499
0.68892092 0.42821231 0.30693802 4283456297
0.69054806 0.42645445 0.30921867 4280235331
0.70730549 -0.51719165 0.31258658 4285242277
0.74742913 -0.47585395 0.31392562 4285038468
0.72171086 0.38198847 0.31258318 4284513671
0.69234627 0.42754287 0.31235892 4280629041
0.70851249 -0.51752812 0.31695807 4285176229
0.71125382 -0.51698673 0.31828198 4281957795
0.74674237 -0.47569633 0.316955 4284051573
0.71997881 0.38389426 0.31942108 4280702320
0.72185528 0.3823576 0.31726009 4283527038
0.69420755 0.42752552 0.31601548 4280235065
0.69670606 0.42736369 0.31912994 4280037949
0.71143186 -0.51697963 0.32198048 4281563033
0.74318182 -0.47593841 0.32246134 4280041567
0.74370587 -0.47484359 0.32447857 4280633962
0.72222739 0.38273165 0.32244942 4283199103
0.69767231 0.43186611 0.32298717 4282798123
0.71296471 -0.51924556 0.32846588 4284387230
0.74710941 -0.47516042 0.32973453 4282338891
0.74300635 -0.47478431 0.32765296 4280175213
0.72336954 0.38329306 0.32708976 4282542714
0.70129085 0.431326 0.32877138 4281023284
0.71704847 -0.52148914 0.33273396 4284058775
0.71427917 -0.51966411 0.33055916 4282609524
0.74746871 -0.47560924 0.33147562 4282406489
0.72371417 0.38351634 0.33177656 4281688698
0.70121437 0.43199673 0.33272067 4282207027
0.72374928 -0.52280533 0.33728355 4281233550
0.74760181 -0.47339433 0.33767387 4285103224
0.72441691 0.38409677 0.33726755 4280833650
0.70142746 0.43172443 0.3371073 4280826665
0.72624969 -0.52579695 0.34164539 4281298064
0.74662846 -0.47641945 0.34381369 4279910235
0.74792105 -0.47369558 0.34137937 4284841086
0.72445697 0.38392341 0.34267756 4279914345
0.69979876 0.42931736 0.34470153 4280957991
0.70049411 0.43085828 0.34206203 4280695866
0.72679836 -0.52648437 0.34707847 4281494914
0.74798363 -0.47591999 0.3471137 4281224803
0.74921727 -0.47414255 0.34789416 4281880924
0.7238766 0.38317713 0.34722221 4281096305
0.72597277 0.38143897 0.34857309 4285367436
0.70055473 0.43073338 0.34788695 4281614622
0.72753316 -0.52724463 0.35204303 4283861391
0.73024607 -0.52570885 0.35321298 4279788169
0.75013751 -0.47619548 0.35321409 4281687416
0.74907088 -0.47449911 0.35104758 4281555312
0.72611392 0.38160864 0.35276642 4284381061
0.70030087 0.43137118 0.35273552 4285165358
0.73127735 -0.52759647 0.35749769 4281364363
0.74961728 -0.47374067 0.35869429 4282867047
0.72616476 0.38088727 0.35720375 4284907149
0.70336407 0.42795208 0.35678872 4279973696
0.73346883 -0.52742666 0.36268923 4280179838
0.74809808 -0.47337121 0.36275536 4281949809
0.72691727 0.3813217 0.36340338 4283856264
0.70216316 0.43190116 0.36259621 4285889327
0.73319972 -0.52724642 0.36722356 4280508029
0.74705118 -0.47255737 0.36731976 4281423211
0.72723705 0.38086239 0.36711833 4283593092
0.70680821 0.4301025 0.36953327 4280826685
0.73426038 -0.52809542 0.37192854 4280966519
0.73541754 -0.52768111 0.37483725 4279980920
0.74698186 -0.47208771 0.37222487 4280832360
0.72839141 0.38167709 0.37245664 4283593607
0.70610058 0.43051916 0.37276828 4281417776
0.73685884 -0.52828181 0.37796354 4280178039
0.74753869 -0.4728083 0.37710309 4280174947
0.75081521 -0.471315 0.37900105 4284578425
0.72767413 0.38237524 0.37796813 4282082429
0.70607251 0.43111858 0.37800211 4283522349
0.73668981 -0.52746224 0.38189095 4280112503
0.74909681 -0.47309768 0.38135794 4280109153
0.72685665 0.38336217 0.38330516 4280834938
0.68393588 0.43798271 0.38429374 4285581822
0.68712151 0.43821481 0.38431418 4286040052
0.73745972 -0.52771068 0.38716218 4280375680
0.75154525 -0.47268438 0.38729995 4281948013
0.72790241 0.38300666 0.3872906 4281556862
0.68298817 0.4374074 0.38766801 4285647102
0.73684353 -0.52821261 0.39265648 4282873223
0.75224197 -0.47296116 0.39266124 4282079337
0.73174262 0.38147515 0.39259568 4285630869
0.68363929 0.43769768 0.39191911 4285516029
0.73569167 -0.52739179 0.39762092 4284253315
0.75256401 -0.47324622 0.39805335 4280896094
0.73120075 0.38165283 0.39786005 4282935423
0.71214509 0.43215573 0.39763081 4283587897
0.68903613 0.43788749 0.39699638 4285712373
0.69088477 0.43737474 0.39709258 4286040563
0.73487008 -0.52582043 0.40057984 4283265399
0.73475331 -0.52050257 0.40338302 4279519858
0.73585099 -0.52282733 0.40224776 4279848820
0.75829345 -0.47372508 0.40245929 4284050547
0.73235738 0.381576 0.40311736 4283921031
0.71382898 0.431999 0.40143865 4282667320
0.71548462 0.43195927 0.40410382 4281089075
0.73619819 -0.52204221 0.40752268 4279848049
0.75657034 -0.47381121 0.40708423 4281357417
0.73258793 0.38310808 0.4079771 4282280322
0.71621007 0.43194386 0.40730542 4280892729
0.73499566 -0.52226382 0.41359836 4280111477
0.73576719 -0.52250504 0.41212755 4280241768
0.75739002 -0.47633937 0.41342869 4279648348
0.76294029 -0.47629318 0.41499174 4282076487
0.75656974 -0.47379589 0.41001683 4281490552
0.73391026 0.38257951 0.41102701 4283199878
0.73601121 0.38250622 0.41338626 4283922060
0.71764904 0.43242463 0.4115724 4281286967
0.73436576 -0.52139491 0.41570991 4279978860
0.73578686 -0.52312714 0.4180696 4282936178
0.7627266 -0.47623882 0.41793498 4282999913
0.73754221 0.38258073 0.41731688 4285236626
0.71727115 0.43261823 0.41752228 4283258678
0.73660153 -0.52250916 0.4227806 4281228142
0.76280802 -0.47694615 0.42198867 4281159522
0.73801279 0.38302431 0.42147592 4283921027
0.71628135 0.43239439 0.42214167 4284574001
0.73726106 -0.52252871 0.42732048 4281621862
0.7670458 -0.47767928 0.42734966 4284184444
0.73790073 0.3868925 0.42724574 4282085519
0.71575153 0.43131351 0.42666352 4283192873
0.73897374 -0.522416 0.4325799 4280702319
0.77117592 -0.48006639 0.43478733 4281880152
0.7680288 -0.4786233 0.43170276 4282804604
0.74106938 0.38512087 0.43284035 4279913578
0.71443325 0.42930698 0.43197849 4281941505
0.7175492 0.4278205 0.4326697 4280367427
0.74115801 -0.52240074 0.43778363 4280307560
0.77177364 -0.48089683 0.43862832 4282475385
0.77208954 -0.47798428 0.43704668 4285958275
0.7414338 0.38532391 0.43866336 4280636528
0.71832943 0.42877272 0.43732524 4280760892
0.74268645 -0.52315778 0.44206306 4280044909
0.77275407 -0.48232707 0.44290695 4280306539
0.7417044 0.38694677 0.44308779 4282018440
0.71913648 0.42894077 0.44194639 4281024056
0.74453866 -0.52270275 0.44728571 4280175470
0.77350873 -0.48215881 0.44747224 4280634990
0.74421769 0.38400277 0.44793677 4284183428
0.74233866 0.38692281 0.44740981 4282873237
0.7196911 0.4290607 0.44728494 4280827978
0.7209872 0.4288412 0.44797307 4280564805
0.7456215 -0.52739567 0.45260155 4285566845
