# .PCD v0.7 - Point Cloud Data file format
VERSION 0.7
FIELDS x y z rgb
SIZE 4 4 4 4
TYPE F F F U
COUNT 1 1 1 1
WIDTH 1051
HEIGHT 1
VIEWPOINT 0 0 0 1 0 0 0
POINTS 1051
DATA ascii
0.67900288 0.020732716 -0.42214859 4283653213
0.68454671 0.025413938 -0.42486182 4283981149
0.68626291 0.03508576 -0.42456582 4283981406
0.69002748 0.03931623 -0.42911476 4284112740
0.68757021 0.044689536 -0.42502257 4284375905
0.69036949 0.042495381 -0.42965871 4283915615
0.68855292 0.052953746 -0.42399541 4284835942
0.69061565 0.057184253 -0.42325377 4284836458
0.69021696 0.060193449 -0.42092445 4285427312
0.66767681 0.078480512 -0.42062682 4286873979
0.68373203 0.078618675 -0.42041516 4286611579
0.66746598 0.083620258 -0.42188761 4286743163
0.67187357 0.087160021 -0.42732352 4286875009
0.68486643 0.080404431 -0.42085004 4286545786
0.67239857 0.095320858 -0.4246923 4286874495
0.67440492 0.10572261 -0.42450133 4286414203
0.66987962 0.11550877 -0.42130312 4286545532
0.67568564 0.11526836 -0.42508772 4286020217
0.67515111 0.12479549 -0.42498717 4285954166
0.68026036 0.12585273 -0.42302305 4285494647
0.67657691 0.13490544 -0.42509615 4285690739
0.68024105 0.13374965 -0.42427599 4285297269
0.67776614 0.14450495 -0.42497504 4285362288
0.68070447 0.14804846 -0.42745757 4285821553
0.67629057 0.15471892 -0.42437851 4285033581
0.6820389 0.1540809 -0.42684218 4285952367
0.67528075 0.16491552 -0.42472467 4284836459
0.68389952 0.16838598 -0.42424625 4285361258
0.67547894 0.17512719 -0.42547035 4284639338
0.68690729 0.1754135 -0.42478386 4285623658
0.67440099 0.1852943 -0.42564398 4284376679
0.6885317 0.18499283 -0.42487505 4285557348
0.69022065 0.18655993 -0.42749381 4285426018
0.6733768 0.19502507 -0.42565915 4284310629
0.68697888 0.19374515 -0.42535409 4285491557
0.67466319 0.203219 -0.42771578 4284310372
0.67484277 0.23587289 -0.42091155 4284112740
0.67649192 0.24632253 -0.42499623 4284179298
0.66805452 0.25850093 -0.42381698 4284113765
0.67309773 0.25431439 -0.42543346 4284179299
0.65824944 0.26822042 -0.42701626 4284179558
0.66445285 0.26303765 -0.42637384 4284179813
0.65735573 0.27447775 -0.427185 4284179044
0.65802157 0.2834298 -0.42780748 4284375908
0.6649487 0.29629919 -0.42498368 4284310374
0.66779739 0.30387035 -0.4250665 4284244835
0.67065966 0.30939177 -0.42429376 4284310372
0.67156935 0.31316242 -0.42433384 4284310115
0.67332101 0.32097995 -0.42551011 4284375395
0.67864245 0.33414915 -0.42993772 4284243808
0.68316287 0.34812984 -0.42482147 4284310115
0.67975742 0.35947835 -0.42396915 4284769382
0.68213534 0.35579306 -0.4242022 4284441187
0.67846996 0.36571223 -0.42454526 4284375136
0.68056649 0.36190689 -0.42384616 4284375136
0.6765669 0.37488869 -0.42483592 4284440670
0.67621249 0.38484612 -0.42439812 4284309084
0.67638004 0.3951804 -0.42503753 4284308827
0.67524207 0.40446669 -0.42498478 4284571483
0.67519814 0.41262165 -0.42442924 4285687888
0.70481426 -0.51294339 -0.41788745 4285887855
0.70212138 -0.50779557 -0.41105869 4285623913
0.69997048 -0.45717236 -0.41732764 4286151803
0.70096004 -0.45354223 -0.41724586 4285888631
0.69858652 -0.44401765 -0.41168109 4286020217
0.70124197 -0.4449532 -0.4178035 4286216570
0.69906312 -0.43423751 -0.41729766 4286283131
0.70112085 -0.43420449 -0.413288 4286282619
0.69938153 -0.42569062 -0.41745573 4286086520
0.70194256 -0.42475909 -0.41300884 4286151545
0.69800621 -0.41424125 -0.41695672 4286349181
0.70355326 -0.41475338 -0.41233149 4286282873
0.69743276 -0.40589941 -0.41817042 4286415484
0.7050752 -0.40493095 -0.41363254 4286283128
0.69933736 -0.39872473 -0.41916838 4286678144
0.70692205 -0.39558518 -0.41588333 4286217336
0.71020555 -0.3950572 -0.41177353 4286217078
0.70900458 -0.38552731 -0.41648853 4286216824
0.71019459 -0.38573295 -0.41399041 4286151799
0.70832998 -0.37475339 -0.41474354 4286150518
0.71022403 -0.37965047 -0.41822702 4286610297
0.7080099 -0.36688524 -0.41728878 4285756532
0.70554304 -0.35628617 -0.41711599 4285691510
0.7034086 -0.34544572 -0.41799292 4285494643
0.70433563 -0.33590105 -0.41784751 4285559924
0.7084946 -0.32472676 -0.41801336 4285558896
0.71095508 -0.32088795 -0.41859594 4285493103
0.70948684 -0.31960911 -0.41557372 4285428082
0.71174735 -0.31481746 -0.41745386 4285361776
0.70793504 -0.30426955 -0.41505888 4284968815
0.71092916 -0.30874228 -0.41941071 4284968814
0.70477283 -0.29899788 -0.41924024 4285034094
0.67938739 -0.26219663 -0.41019845 4284968301
0.68062317 -0.26267985 -0.41096517 4284902252
0.6797595 -0.25693783 -0.41219243 4284967787
0.68387192 -0.25373337 -0.41491348 4284901737
0.68481219 -0.2452102 -0.41486987 4284967015
0.68505049 -0.23489466 -0.41397178 4284638822
0.69123459 -0.23621286 -0.41865194 4284900707
0.67785323 -0.22348604 -0.41861019 4284310884
0.68504494 -0.22511826 -0.41395572 4284507750
0.69119018 -0.22499286 -0.41667983 4284900967
0.67581064 -0.2146908 -0.41731709 4284376421
0.68576908 -0.21489377 -0.41288736 4284572771
0.69093937 -0.21707872 -0.41714513 4284834657
0.67574656 -0.20519978 -0.417101 4284441701
0.68496633 -0.20489112 -0.41306069 4284506979
0.69013637 -0.20091839 -0.41005063 4284310884
0.67777425 -0.19426845 -0.4160313 4284441700
0.6840871 -0.19524106 -0.41497126 4284572514
0.69143188 -0.19493967 -0.41121614 4284179043
0.67878002 -0.18747725 -0.41606444 4284506980
0.68382841 -0.18450332 -0.41453773 4284441187
0.69138134 -0.18702672 -0.41065934 4284179299
0.68524635 -0.17551644 -0.41458511 4284178786
0.69384944 -0.17124456 -0.41391265 4284375391
0.68657166 -0.16508703 -0.41491064 4284244577
0.69774795 -0.16585779 -0.41465598 4284440671
0.70087689 -0.16265243 -0.4179585 4284767584
0.68888235 -0.1583516 -0.41503134 4284178782
0.69515449 -0.15383513 -0.41448984 4284309598
0.701325 -0.15653811 -0.41780174 4284636767
0.69518119 -0.14498375 -0.41492462 4284375135
0.68870634 -0.13094001 -0.41381037 4284309602
0.69344372 -0.13532946 -0.41532689 4284374879
0.68555176 -0.12412948 -0.41315177 4283916127
0.69433331 -0.12477976 -0.41501567 4284243290
0.68385863 -0.11492153 -0.41445839 4283981666
0.69525909 -0.11485907 -0.41488987 4284308572
0.68249428 -0.10511413 -0.41441283 4284178271
0.69433945 -0.10533818 -0.41539666 4284111452
0.68191069 -0.094780333 -0.41445583 4284046685
0.69261986 -0.094776325 -0.41669607 4283783769
0.68382299 -0.084703974 -0.41467011 4284112476
0.69131273 -0.085097559 -0.41690004 4283980378
0.68799824 -0.075611047 -0.41493443 4284046683
0.69118607 -0.073887452 -0.41542032 4283915098
0.68573427 -0.064684615 -0.4160867 4283849305
0.69608438 -0.065517351 -0.41534594 4283915613
0.70135313 -0.06196899 -0.41230461 4283784028
0.68454003 -0.055737607 -0.41611582 4283849051
0.69840795 -0.054768145 -0.41834679 4283719004
0.7030881 -0.055042032 -0.41412589 4283915101
0.68609035 -0.044043481 -0.41686925 4283717979
0.69477433 -0.044683661 -0.41498071 4283849563
0.70269197 -0.047351666 -0.41247344 4284046428
0.68720305 -0.034974854 -0.41521719 4283849561
0.69165784 -0.038405146 -0.41145316 4283784026
0.68795794 -0.025431819 -0.414965 4283783768
0.69110525 -0.022112355 -0.41918343 4283915610
0.67798996 -0.010437797 -0.41127422 4283717718
0.68658078 -0.016861148 -0.41449589 4283849304
0.6912927 -0.014707467 -0.41634282 4283849814
0.67491764 -0.0041191629 -0.41164958 4283652182
0.68834406 -0.0035975426 -0.41496626 4284111706
0.69071579 -0.0081955539 -0.41652372 4284111450
0.67330539 0.0053344187 -0.41273662 4283651928
0.68440783 0.0051493612 -0.41492757 4284177500
0.67680937 0.015204163 -0.41464722 4283652440
0.68079609 0.014456521 -0.41475645 4284177500
0.67923152 0.023878425 -0.41339332 4284046684
0.68134391 0.025963809 -0.41594273 4284046429
0.67966413 0.031916402 -0.41259462 4284440670
0.68248194 0.035389796 -0.41485479 4284112733
0.68519521 0.044383056 -0.41482323 4284244061
0.68919289 0.054786991 -0.41525221 4284835941
0.69031388 0.054277983 -0.41458842 4284835942
0.68686271 0.0621126 -0.41271287 4285100138
0.69060493 0.060090929 -0.41980976 4285164908
0.6687066 0.078891769 -0.41889113 4286611578
0.67077374 0.078985319 -0.41857249 4286808957
0.68560785 0.077725843 -0.41592494 4286413684
0.66795993 0.085677005 -0.41808456 4286939771
0.67480403 0.085950293 -0.41660491 4286808446
0.68366259 0.084776811 -0.41454345 4286676859
0.66918248 0.093347989 -0.41827589 4287005057
0.67515403 0.09573444 -0.4154622 4286808189
0.68140417 0.094975844 -0.41179565 4286546043
0.66952407 0.10838698 -0.41622055 4286675832
0.67449903 0.10500737 -0.41524103 4286348154
0.6809184 0.10198802 -0.41183296 4286348409
0.66923934 0.11371998 -0.41594711 4286741113
0.67410898 0.11535935 -0.41398183 4286019447
0.67571437 0.12478845 -0.41507432 4285953395
0.68141472 0.12816751 -0.41206914 4285820775
0.67757124 0.13510416 -0.41640505 4285493617
0.68345523 0.13560054 -0.41287857 4285821293
0.67592293 0.14481522 -0.41494194 4285362031
0.68216068 0.14185895 -0.41124445 4285558889
0.66981047 0.15272236 -0.41148299 4285820781
0.67273295 0.15468815 -0.41441539 4285164908
0.66874921 0.16653807 -0.41124886 4284442728
0.6749469 0.16365196 -0.41445526 4285099113
0.68113083 0.16837558 -0.41559526 4285492071
0.66811806 0.17400949 -0.41188014 4284376678
0.67280138 0.17575958 -0.4192304 4284442730
0.68416345 0.17498642 -0.41467613 4285557095
0.66895866 0.18438874 -0.41313612 4284376935
0.67248541 0.18461332 -0.41933107 4284244837
0.68495971 0.18518311 -0.4147872 4285426534
0.66862655 0.19140057 -0.41424575 4284180070
0.67253107 0.19459502 -0.41980478 4284245348
0.68217677 0.19257133 -0.41466612 4285229669
0.66880441 0.22686952 -0.41206828 4284047969
0.67017061 0.22925739 -0.41164359 4284179039
0.66985559 0.2310756 -0.41018093 4284376415
0.6726436 0.23582435 -0.41386598 4284244579
0.6739012 0.24517612 -0.41399348 4284113763
0.66762489 0.25750774 -0.41532251 4284179300
0.67201883 0.25375718 -0.41332144 4284048228
0.65894508 0.26584709 -0.41335115 4284309605
0.66541284 0.2639789 -0.41332445 4284113252
0.6722253 0.2608408 -0.41055736 4284048229
0.68862855 0.26633635 -0.4102909 4283851359
0.66553587 0.27067998 -0.41252974 4284179043
0.6701476 0.27138567 -0.41136751 4284245093
0.69372588 0.27561212 -0.4124167 4283982436
0.67700827 0.28817219 -0.41794696 4284113250
0.68554354 0.28979087 -0.41676152 4283916899
0.69619787 0.28537723 -0.41350642 4284113764
0.66816133 0.29539967 -0.41763669 4284179300
0.67469007 0.29478651 -0.41631892 4284310117
0.68351448 0.29508212 -0.41600543 4284113509
0.69516939 0.29511696 -0.4137468 4284179043
0.66906983 0.30448848 -0.41798785 4284244579
0.67430973 0.30552128 -0.41495296 4284244836
0.68583083 0.3056806 -0.41319406 4284178787
0.691275 0.30234823 -0.41292879 4284244578
0.66897982 0.3168385 -0.4141784 4284244579
0.67306644 0.31278062 -0.41329092 4284244581
0.6828475 0.31132141 -0.41143844 4284375908
0.66830075 0.32284734 -0.41176653 4284179300
0.67926955 0.3468051 -0.41267487 4284506723
0.68144268 0.34972742 -0.41793722 4284375392
0.68161482 0.35591221 -0.4163624 4284506464
0.67935431 0.36897177 -0.41769117 4284440669
0.68099719 0.36464259 -0.41503507 4284309598
0.67897648 0.37560505 -0.41643772 4284308826
0.68023854 0.37436485 -0.41274422 4284177500
0.67918855 0.38525847 -0.41617459 4284243291
0.68024188 0.38615271 -0.413634 4284242777
0.67914593 0.39539471 -0.41615969 4284242777
0.68023825 0.39418319 -0.41266134 4284242519
0.67814171 0.40497652 -0.41513762 4284505432
0.67689019 0.41366968 -0.41559848 4285686613
0.6983704 -0.51273251 -0.40090027 4286151024
0.69891202 -0.50545591 -0.40255105 4285361255
0.70027459 -0.50217247 -0.40229535 4285296233
0.69977653 -0.49785268 -0.40226939 4285624427
0.70016581 -0.49813581 -0.40249914 4285558890
0.695288 -0.46446106 -0.40160564 4285625972
0.69517177 -0.45735306 -0.40351719 4285494901
0.69694346 -0.44448256 -0.40481624 4285758068
0.69840747 -0.43688419 -0.40446854 4285757556
0.70116323 -0.43249941 -0.40579966 4285888886
0.70388138 -0.4249244 -0.40502125 4285888117
0.70644945 -0.41532367 -0.40528187 4286019190
0.70909041 -0.40566751 -0.40490934 4286216822
0.71012825 -0.40238416 -0.40456834 4286150771
0.70886862 -0.3955166 -0.40479746 4285954162
0.71005493 -0.39848214 -0.40827185 4286217077
0.70794392 -0.38826647 -0.40558499 4286019441
0.70390832 -0.36295286 -0.40718144 4285954422
0.69996589 -0.35264027 -0.40294462 4285822838
0.70741725 -0.31307057 -0.40712586 4285100143
0.70892549 -0.30806836 -0.40804902 4285034606
0.68333834 -0.27245009 -0.40338397 4284771694
0.67956311 -0.26169598 -0.40712982 4284640366
0.68116206 -0.26553026 -0.40380543 4284574828
0.6790185 -0.2545729 -0.40511605 4285098859
0.6810047 -0.25428605 -0.40442061 4284574058
0.67870986 -0.24509321 -0.40324154 4285426278
0.68250751 -0.24485378 -0.40555948 4284770408
0.67985141 -0.23999107 -0.40033874 4285032805
0.68354607 -0.23489068 -0.40489185 4284835944
0.68635035 -0.22510269 -0.40499118 4284704358
0.687307 -0.21498805 -0.40483013 4284703843
0.68616718 -0.20549849 -0.40488398 4284638307
0.69120884 -0.20174436 -0.40471986 4284245348
0.67946768 -0.19232717 -0.40576509 4284572255
0.68189645 -0.19602261 -0.40401462 4284703585
0.69357896 -0.19493882 -0.40529439 4284179043
0.67914414 -0.18530987 -0.40554601 4284768865
0.68162292 -0.18412982 -0.40230405 4284703583
0.6944285 -0.1847173 -0.40531549 4284113249
0.67946243 -0.17946115 -0.40584895 4284703583
0.68633443 -0.17509964 -0.40516946 4284506719
0.69258332 -0.17517863 -0.40411589 4284309856
0.68748862 -0.16509832 -0.40532291 4284178783
0.69375867 -0.16531903 -0.40454909 4284506207
0.68854576 -0.15611184 -0.40496093 4284113249
0.6949054 -0.15434553 -0.40494418 4284440669
0.68979537 -0.14724535 -0.40181461 4284047714
0.69273925 -0.1448644 -0.40527976 4284112991
0.68917435 -0.13247922 -0.4039796 4284243551
0.69164014 -0.13549209 -0.40523848 4284178272
0.68804544 -0.12436451 -0.40637478 4284047200
0.69201267 -0.12522589 -0.40477201 4283981405
0.68558031 -0.11487515 -0.40495849 4283915871
0.69323164 -0.11535732 -0.40528733 4283980637
0.68377107 -0.10458884 -0.40495494 4283915615
0.69169241 -0.10646485 -0.40724817 4284045914
0.68436259 -0.094729319 -0.40505809 4283980891
0.68601167 -0.08542078 -0.40644065 4283981147
0.69160777 -0.083495386 -0.40183401 4283849819
0.67983615 -0.078210235 -0.40215814 4284045657
0.68425834 -0.075850092 -0.40560827 4283849559
0.69439316 -0.074758366 -0.40464678 4283915357
0.67949092 -0.062259223 -0.40457875 4283717971
0.68152314 -0.065087661 -0.40435651 4283718230
0.69802272 -0.068542443 -0.40656209 4283915356
0.7025153 -0.064080924 -0.40495682 4283915098
0.67943358 -0.054565642 -0.40453184 4283848791
0.68049616 -0.055627197 -0.40426794 4283783512
0.70574313 -0.054998793 -0.40577784 4283783770
0.67945021 -0.04604999 -0.40348363 4283652441
0.68073958 -0.044196479 -0.40643504 4283717724
0.69930971 -0.041746754 -0.40662578 4283783769
0.70339274 -0.046294268 -0.40568382 4283849561
0.68431348 -0.034306116 -0.4051699 4283717975
0.69450903 -0.036976859 -0.40627751 4283783768
0.68493813 -0.025076494 -0.40462133 4283783256
0.67869467 -0.012700928 -0.40643221 4283717462
0.6843636 -0.015474856 -0.40472856 4283848790
0.67662704 -0.0048398622 -0.40516856 4283520854
0.68556648 -0.0052077081 -0.40466183 4283980121
0.67530787 0.0050741173 -0.40486857 4283520853
0.68434185 0.0053036804 -0.40567759 4283915098
0.67652559 0.014978519 -0.40541032 4283520853
0.68331397 0.015155889 -0.40513772 4283980891
0.67875731 0.024283009 -0.40660113 4283784026
0.68187332 0.025362859 -0.40392062 4283981403
0.67917961 0.034432035 -0.40339598 4283587418
0.6820218 0.035091273 -0.40555707 4284112731
0.67965889 0.044804536 -0.40441054 4283717975
0.68463469 0.044415221 -0.40521607 4284046940
0.69119728 0.048128169 -0.40317079 4284374878
0.67930883 0.055492904 -0.40317628 4283981663
0.68777597 0.057452776 -0.40593362 4284835942
0.6921252 0.054083493 -0.40459278 4284704099
0.67774266 0.064788051 -0.40383938 4284507493
0.68387753 0.064505994 -0.405002 4285362027
0.69020092 0.060280308 -0.40036416 4285295726
0.67745745 0.074324153 -0.40257999 4285362286
0.68132341 0.074944071 -0.40774402 4286150768
0.66967982 0.089347906 -0.40251425 4285429363
0.67373699 0.084858142 -0.40107611 4285560178
0.68203479 0.085654892 -0.40680668 4286676089
0.66962034 0.093545832 -0.40387481 4285495157
0.67211974 0.096161403 -0.40362933 4285692024
0.6814487 0.095418461 -0.40590614 4286413692
0.67443168 0.10624088 -0.40528551 4285757302
0.68073595 0.10364427 -0.4049201 4286281844
0.67607331 0.11465172 -0.40562403 4285691251
0.68089288 0.11601465 -0.40175101 4285822322
0.6749987 0.12433521 -0.40593392 4285231472
0.68294173 0.12513191 -0.40478298 4285887345
0.67436582 0.13493329 -0.40541938 4284968557
0.68596882 0.13503754 -0.40486771 4285689710
0.66970116 0.14894184 -0.40740734 4285689964
0.67417473 0.14649613 -0.40530652 4285164650
0.68480855 0.1444605 -0.40483412 4285558123
0.66966558 0.15512803 -0.40589857 4284967530
0.67311597 0.1545573 -0.40456769 4285164393
0.68438017 0.15628563 -0.40170014 4285360743
0.66746253 0.16449502 -0.40444717 4284442729
0.67757326 0.16252972 -0.4074783 4285295209
0.68489534 0.16543986 -0.40401196 4285295208
0.69034559 0.16564222 -0.4009296 4285163105
0.66379452 0.17476779 -0.40338624 4284311399
0.68350118 0.17499383 -0.40451562 4285229673
0.66284275 0.18306755 -0.40354136 4284376677
0.68243086 0.18549378 -0.40510324 4285294948
0.65864331 0.19657493 -0.40258807 4284245091
0.66015303 0.19395635 -0.40375772 4284179298
0.67979169 0.19173078 -0.40571433 4285360486
0.68074828 0.19165355 -0.40505862 4285228901
0.65903443 0.20392627 -0.40259904 4284178787
0.66057122 0.20751601 -0.40444848 4284309859
0.65996242 0.21065804 -0.40243658 4284178787
0.66236991 0.21560268 -0.4034231 4284047972
0.66697013 0.22404408 -0.40552244 4284047713
0.67070574 0.22992349 -0.40837649 4284441184
0.67506701 0.2348851 -0.40516657 4284113506
0.68091613 0.2391171 -0.40119264 4284047456
0.67810708 0.24468695 -0.4072938 4284047714
0.68277085 0.24578178 -0.40280741 4284113506
0.67716253 0.25421557 -0.40873489 4284113253
0.68525541 0.25479564 -0.40413126 4284178786
0.67377663 0.26041487 -0.40945017 4284114023
0.68802357 0.26246989 -0.40548301 4284178787
0.69102323 0.26692492 -0.40467131 4284244324
0.69474185 0.275855 -0.40771204 4284244324
0.6953972 0.28494257 -0.40633067 4284244579
0.68988431 0.29744548 -0.40420943 4284375142
0.6926133 0.29458821 -0.40552866 4284178532
0.68633723 0.30688637 -0.40433902 4284178785
0.69093841 0.3023724 -0.40857056 4284244578
0.66942376 0.31874704 -0.40659025 4284244581
0.67476273 0.31588876 -0.40487662 4284244580
0.68269539 0.31204265 -0.4049705 4284244579
0.66831422 0.32371637 -0.40459314 4284244581
0.67032909 0.33215812 -0.40332741 4284508007
0.67435741 0.35736567 -0.40125921 4283784542
0.67792284 0.36946636 -0.40657014 4284375131
0.67815995 0.37548962 -0.40620217 4284177497
0.67913675 0.38422796 -0.40658656 4284176985
0.68026847 0.38830185 -0.40735698 4284373591
0.67886138 0.3955707 -0.40421653 4284045909
0.68035853 0.39384755 -0.4081938 4284308057
0.67757565 0.40535089 -0.40521219 4284439638
0.67560524 0.41342059 -0.40495974 4285423438
0.69631183 -0.51054162 -0.39519018 4285756524
0.69672632 -0.50483865 -0.39517152 4285690478
0.69494647 -0.47249755 -0.39682081 4285822325
0.69342005 -0.46378621 -0.39420965 4285756532
0.69375312 -0.45469633 -0.39445108 4285494642
0.69465673 -0.44483775 -0.39501759 4285494127
0.69790775 -0.4363445 -0.39487338 4285559663
0.7012518 -0.4315677 -0.39538568 4285494128
0.70462233 -0.4250932 -0.39501581 4285559408
0.70739567 -0.41526082 -0.39549509 4285953908
0.7085923 -0.40527037 -0.39512041 4285690734
0.70831752 -0.39669764 -0.39566424 4285691248
0.70505399 -0.38829392 -0.39055279 4286086012
0.69731838 -0.36179629 -0.39174947 4286020469
0.69693214 -0.35916436 -0.39170197 4286152056
0.69183069 -0.33745819 -0.39364308 4285494901
0.69310468 -0.32283017 -0.396974 4285297777
0.69717783 -0.31501135 -0.39399666 4285100399
0.70081776 -0.31142026 -0.39447799 4284837741
0.70246595 -0.30797929 -0.39476445 4284969070
0.6793251 -0.27189699 -0.39069048 4284705898
0.68166512 -0.27178529 -0.39596623 4284903021
0.67944312 -0.26625708 -0.39043915 4284902506
0.68133861 -0.26456454 -0.39576387 4284705386
0.6783067 -0.25113171 -0.39527857 4285360746
0.68318242 -0.25522858 -0.39507744 4284639592
0.67797267 -0.24501124 -0.39514863 4285098342
0.6844995 -0.24481806 -0.3950409 4284508007
0.67922187 -0.23899871 -0.39567712 4284901223
0.68316078 -0.23482333 -0.39517859 4284835431
0.68514758 -0.22518316 -0.39515162 4284704357
0.68632084 -0.21514708 -0.39459902 4284638307
0.68713742 -0.20531504 -0.39519051 4284572514
0.6906929 -0.20141762 -0.39688531 4284244579
0.68586016 -0.19497782 -0.39492822 4284703585
0.69176823 -0.19510029 -0.396348 4284244836
0.68553567 -0.18484004 -0.39549348 4284506976
0.6925208 -0.18476774 -0.39451963 4284113507
0.68832225 -0.17648244 -0.39619702 4284441183
0.69324815 -0.17372879 -0.39407453 4284244578
0.68974328 -0.16015239 -0.39870083 4284114275
0.69459176 -0.16512708 -0.39523613 4284244062
0.70083386 -0.16568992 -0.39101312 4284243808
0.68916947 -0.1540626 -0.39614028 4284047457
0.69400024 -0.15575601 -0.39457127 4284243804
0.6883896 -0.14489321 -0.39390945 4284047199
0.69153917 -0.14552733 -0.39602596 4284243802
0.68769717 -0.13502054 -0.39439833 4284046941
0.69090438 -0.13540652 -0.39881703 4284047196
0.68804145 -0.12573557 -0.3951667 4283915865
0.69129354 -0.12434401 -0.39722294 4283981660
0.68868339 -0.11403164 -0.3953141 4283915611
0.69098854 -0.1172903 -0.39734107 4283981406
0.68769592 -0.10520867 -0.39640626 4283849820
0.69052702 -0.10192151 -0.39363045 4283980893
0.67523217 -0.0937628 -0.39093187 4283783514
0.68725473 -0.096742406 -0.39793271 4283915356
0.69106179 -0.094362162 -0.39467788 4284046427
0.67584699 -0.082912169 -0.39456782 4283717975
0.68934113 -0.089278117 -0.39988184 4283849818
0.6934005 -0.0850631 -0.3959243 4283980891
0.67760813 -0.074817717 -0.39469138 4283849302
0.68077499 -0.071754582 -0.39893919 4283784020
0.69631624 -0.075009912 -0.3953948 4283849562
0.67953014 -0.069256999 -0.39388645 4283784023
0.68223482 -0.064535797 -0.39511687 4283652437
0.69897699 -0.069213875 -0.39611384 4283849306
0.70144266 -0.063956544 -0.39639693 4283849305
0.68254972 -0.054949071 -0.39535636 4283717717
0.70302898 -0.055153202 -0.39639622 4283783767
0.6798588 -0.043863267 -0.39870584 4283717976
0.68145233 -0.045088768 -0.39449552 4283783253
0.69885051 -0.046081141 -0.39318591 4283980375
0.70178151 -0.048457816 -0.39661771 4283849301
0.67987978 -0.030552112 -0.3917065 4283455060
0.68308556 -0.034396186 -0.39484933 4283651670
0.69049871 -0.036263324 -0.39453495 4283783770
0.67971742 -0.026104789 -0.39191791 4283651925
0.68255347 -0.024946392 -0.39538822 4283717462
0.67977911 -0.011761813 -0.39559224 4283585877
0.68139213 -0.015126064 -0.39485732 4283651668
0.67868799 -0.0045968713 -0.39482126 4283258452
0.68196481 -0.0052022468 -0.39493707 4283652951
0.67705703 0.0045747031 -0.3944529 4283389525
0.68174976 0.0053819348 -0.39571008 4284045658
0.67469728 0.015043533 -0.39520785 4283389523
0.68272573 0.015110677 -0.39499962 4283980377
0.6742211 0.025317164 -0.39513236 4283324502
0.68338805 0.025205623 -0.39513254 4284046426
0.67572969 0.035133287 -0.39463186 4283521624
0.68588519 0.035042163 -0.39581814 4283981147
0.67858267 0.045359183 -0.39455095 4283587159
0.68806779 0.042412408 -0.39589199 4284112478
0.69136029 0.04701088 -0.39525878 4284178271
0.6790157 0.055207916 -0.39533734 4283850076
0.68018049 0.053294133 -0.39731225 4283784283
0.69268566 0.055168811 -0.39536935 4284638051
0.67743456 0.066012263 -0.39521182 4284639078
0.68482596 0.06369172 -0.39522216 4285164393
0.69065613 0.06048017 -0.3957409 4284704101
0.67612779 0.074824713 -0.39499795 4285296493
0.67484421 0.085073493 -0.394927 4285691250
0.66978329 0.09314891 -0.39848122 4285364342
0.67520535 0.095008716 -0.3951129 4285625972
0.68037188 0.098285154 -0.3924683 4285953398
0.66933465 0.10548263 -0.39067602 4285100399
0.67405295 0.10504914 -0.396189 4285428594
0.68054861 0.10489324 -0.39463249 4285887347
0.66885185 0.11580644 -0.39227295 4285100142
0.67430311 0.1140649 -0.39466849 4285362800
0.68061608 0.11538415 -0.39585954 4285625456
0.6694181 0.12477101 -0.39254546 4285034350
0.67045808 0.1255379 -0.39641303 4285034352
0.68208939 0.12491393 -0.39474979 4285493615
0.66968429 0.13315502 -0.39327925 4284902764
0.67044848 0.1363536 -0.39485988 4284902764
0.6845035 0.13502425 -0.39479229 4285492843
0.67125702 0.14518653 -0.39492527 4284574313
0.68570042 0.145184 -0.39533758 4285426794
0.66981566 0.15857944 -0.39733464 4284442472
0.6715591 0.15453999 -0.39422646 4284508263
0.68621927 0.15464683 -0.39572147 4285360998
0.66725379 0.16515915 -0.39515215 4284376422
0.67047006 0.16086721 -0.39224187 4284376677
0.68879694 0.16563311 -0.39517775 4285229412
0.69023699 0.16518435 -0.39942032 4285294691
0.66255993 0.1748801 -0.39487836 4284441703
0.68521571 0.17488638 -0.39472541 4285163622
0.65934527 0.18786491 -0.39667103 4284441189
0.66090274 0.18402535 -0.39425048 4284310115
0.68200725 0.18494077 -0.39499834 4285098089
0.65862334 0.19550234 -0.39569634 4284375652
0.66018766 0.19280708 -0.39190784 4284375395
0.68131399 0.19113351 -0.39568883 4284835688
0.65898025 0.20384903 -0.39559925 4284113508
0.6607905 0.20784302 -0.3932656 4284113507
0.6599431 0.21046501 -0.39813003 4283916644
0.66290438 0.21485092 -0.39486462 4283982433
0.66825235 0.22252023 -0.39562255 4284113248
0.67216468 0.2260762 -0.39428467 4284178783
0.67880094 0.23310573 -0.39631164 4283981919
0.6818468 0.23677415 -0.39446208 4283981664
0.68611562 0.24481989 -0.39507797 4284244066
0.69003361 0.2485953 -0.3909528 4284179300
0.68779558 0.25508034 -0.39471102 4284178785
0.68718249 0.26257092 -0.39476696 4284244578
0.68800867 0.27260229 -0.394247 4284179300
0.68738627 0.28960204 -0.39545935 4284244580
0.68488228 0.29605892 -0.39423814 4284178788
0.6830985 0.30505934 -0.39486018 4284113252
0.6683175 0.31848022 -0.39404798 4284310116
0.67506152 0.31488237 -0.3952342 4284112994
0.68073899 0.31128046 -0.39588016 4284178789
0.66639036 0.32305515 -0.39556047 4284179044
0.66876996 0.35569167 -0.39072677 4284243806
0.66977096 0.36306185 -0.39047033 4284243039
0.67156076 0.36770782 -0.39142966 4284243035
0.67315865 0.37548649 -0.39276674 4284111446
0.67470664 0.38599083 -0.39245287 4283783511
0.67509782 0.3952665 -0.39502257 4283849302
0.67431617 0.40358987 -0.39615893 4283980886
0.67261606 0.43854338 -0.39434952 4294705138
0.66996121 0.4446274 -0.39348722 4294770683
0.67170477 0.44263482 -0.39291006 4294770682
0.69530773 -0.51364863 -0.38809091 4286544495
0.6927557 -0.50427955 -0.38261405 4285887857
0.6914497 -0.47376877 -0.38404298 4285887862
0.6936323 -0.46469793 -0.38511693 4285756273
0.69597489 -0.45549709 -0.3854956 4285690993
0.69665152 -0.44448698 -0.38583478 4285428336
0.69888073 -0.43726096 -0.38574225 4285428590
0.7016657 -0.43299159 -0.38520315 4285362799
0.70438218 -0.42511782 -0.38512272 4285362801
0.70640647 -0.41525227 -0.38521048 4285624945
0.70750421 -0.40507606 -0.38552985 4285428079
0.70723534 -0.39482483 -0.3852624 4285691252
0.70538998 -0.38658226 -0.38418365 4285888631
0.69928461 -0.37506053 -0.38296205 4285822840
0.70033967 -0.37464219 -0.38042557 4285691254
0.69461352 -0.36424661 -0.38214484 4285888631
0.69365233 -0.35492298 -0.38446417 4285757044
0.69262773 -0.34817076 -0.38478744 4285625717
0.68751413 -0.3350049 -0.38148892 4285691253
0.69037694 -0.33846289 -0.38856816 4285757045
0.68500918 -0.32474777 -0.38368541 4285297520
0.68768662 -0.3176094 -0.3835279 4285297004
0.69259244 -0.31313828 -0.38396206 4285362541
0.69542563 -0.30815071 -0.38293785 4285428078
0.67705405 -0.27177131 -0.38447949 4284575339
0.67814487 -0.26564866 -0.38406238 4284575082
0.68063414 -0.26224723 -0.38762549 4284770921
0.67973161 -0.25720119 -0.38393199 4284640104
0.68238783 -0.25399354 -0.38561827 4284902250
0.67950404 -0.24474755 -0.38882646 4285163112
0.68245977 -0.24480723 -0.38472643 4284967273
0.67989349 -0.2333757 -0.38230911 4285491307
0.68271381 -0.23507409 -0.38474557 4284901481
0.67917717 -0.22405747 -0.381603 4284966248
0.68438017 -0.22560997 -0.38510457 4284442213
0.67812997 -0.2146277 -0.38280511 4284900193
0.68652457 -0.21503457 -0.38455364 4284179555
0.67829108 -0.20638603 -0.38305038 4284769118
0.68518502 -0.20399648 -0.38549557 4284441441
0.67982841 -0.19976088 -0.38166419 4284704610
0.68579757 -0.19476798 -0.38500181 4284506977
0.6881839 -0.18568006 -0.3854121 4284441185
0.691769 -0.18214729 -0.38334224 4284440928
0.689188 -0.17610072 -0.38321227 4284179042
0.69505852 -0.17513022 -0.38587707 4284309598
0.70107412 -0.17062731 -0.38474074 4284571226
0.68982714 -0.16334128 -0.38145244 4284244320
0.69365388 -0.1649915 -0.3849003 4284244064
0.7010892 -0.16529122 -0.3858681 4284374618
0.68872583 -0.15332253 -0.38475725 4284112993
0.69528359 -0.15571155 -0.38533661 4284309341
0.70028216 -0.1599859 -0.38394293 4284374618
0.6870749 -0.14451914 -0.38479236 4284243550
0.69108438 -0.14837058 -0.38457909 4284439901
0.68416321 -0.1348833 -0.3848922 4284046940
0.67980695 -0.12175579 -0.38098943 4283980634
0.68313402 -0.12536749 -0.38517663 4283850332
0.67942512 -0.11746766 -0.3815268 4284242524
0.68400639 -0.11503534 -0.38544226 4283915355
0.67604184 -0.10423122 -0.38305414 4283849558
0.68644381 -0.10521283 -0.38466415 4283784283
0.69013906 -0.10094278 -0.38946259 4284308829
0.66938269 -0.090951338 -0.38199848 4283783508
0.67235273 -0.095663659 -0.38321087 4283718229
0.6872375 -0.095480055 -0.38484627 4283914842
0.69015998 -0.09397608 -0.38844538 4284045914
0.66902918 -0.084978357 -0.38235775 4283718228
0.6715157 -0.084611274 -0.38746986 4283718231
0.68749267 -0.085568391 -0.38312292 4283784026
0.6915651 -0.084853999 -0.38853925 4284111451
0.66989315 -0.078813314 -0.38383889 4283848786
0.67294508 -0.074886896 -0.38487831 4283914582
0.68862885 -0.078888342 -0.38259733 4283718747
0.69359392 -0.075001299 -0.38825864 4283783771
0.67783076 -0.067654721 -0.384965 4283848791
0.68156701 -0.064096071 -0.38800743 4283849049
0.69581705 -0.064368345 -0.38616663 4283849050
0.679254 -0.057324301 -0.38157386 4283521366
0.6818614 -0.054767214 -0.38551381 4283520597
0.69765383 -0.056618188 -0.38733357 4283783769
0.67956597 -0.044057149 -0.3805674 4283651412
0.68139845 -0.045254257 -0.38533455 4283717206
0.69016528 -0.04414463 -0.38245797 4283783257
0.67921823 -0.034185585 -0.38335469 4283651412
0.68298054 -0.034505907 -0.38619584 4283717463
0.67916656 -0.024690378 -0.38405925 4283455060
0.68147099 -0.025514646 -0.38603467 4283717973
0.67903036 -0.014878229 -0.38409561 4283586134
0.68056113 -0.015273568 -0.38708112 4283454804
0.67863768 -0.0048195398 -0.38468593 4283455062
0.68019259 -0.0048726471 -0.38861033 4283652439
0.67743534 0.0050366279 -0.38468063 4283586135
0.6804235 0.0057509192 -0.38940692 4283717976
0.6755662 0.014727288 -0.38462132 4283520341
0.68056309 0.015727002 -0.38872999 4283717976
0.67511213 0.02469019 -0.38421017 4283520598
0.68129015 0.025360683 -0.38770843 4283849561
0.67658979 0.034722194 -0.38472465 4283455062
0.68369299 0.035781607 -0.38529527 4283849562
0.67880756 0.044425603 -0.38593081 4283455061
0.68502897 0.045129579 -0.38407785 4283652697
0.69053829 0.047795929 -0.38823843 4284112736
0.67892039 0.055884741 -0.38664639 4283718490
0.68472397 0.054808743 -0.38289881 4283915612
0.6906842 0.055086393 -0.38731959 4284440930
0.67678344 0.065262899 -0.3849985 4284113249
0.68455708 0.065198101 -0.38502249 4285032294
0.69025725 0.060118988 -0.38828969 4284835169
0.67692792 0.075170964 -0.38594607 4284967786
0.68120193 0.074331462 -0.38255522 4285361771
0.67610562 0.084506169 -0.38633093 4285231214
0.68177408 0.085764661 -0.38290128 4285690223
0.67251456 0.094652325 -0.38548887 4285165679
0.68333519 0.095172748 -0.3852298 4285559665
0.66904247 0.10586472 -0.38513401 4284968556
0.67252135 0.10316436 -0.38635868 4285231214
0.68347126 0.1050682 -0.38495994 4285493103
0.66759771 0.11471409 -0.38483199 4284968558
0.67924637 0.11598885 -0.38537434 4285427309
0.68111455 0.11303024 -0.38455972 4285493102
0.66857451 0.12486457 -0.38470557 4284705900
0.67836881 0.12452689 -0.38342834 4285361256
0.68084866 0.12562436 -0.38749593 4285427307
0.66968012 0.13140355 -0.38688049 4284771437
0.67115623 0.13576801 -0.38525227 4284705387
0.68255132 0.13517804 -0.3850778 4285295718
0.6729393 0.14490941 -0.38509461 4284573288
0.68345511 0.14504579 -0.38493875 4285360997
0.67340678 0.15490894 -0.38492659 4284311143
0.68349588 0.15487696 -0.38489628 4285163875
0.66823727 0.16637932 -0.38487244 4284179554
0.67108214 0.1616288 -0.38515848 4284245605
0.68526262 0.1648747 -0.38465884 4285163620
0.66532284 0.17471954 -0.38553628 4284179556
0.68490511 0.17506447 -0.38500047 4285097830
0.66291833 0.18491749 -0.38556334 4284047971
0.68282288 0.18496145 -0.38572696 4284966759
0.65974337 0.19766842 -0.38560522 4284178787
0.66065013 0.19466318 -0.38567621 4284179042
0.68243706 0.19051862 -0.38727012 4285032294
0.65975618 0.20172228 -0.3854121 4284113506
0.6611979 0.20539133 -0.38507688 4284113505
0.66498458 0.21463233 -0.38541323 4284047712
0.66964084 0.22159405 -0.38848984 4284113503
0.67191839 0.22365153 -0.38719255 4283981920
0.68095654 0.23379731 -0.38872659 4283981919
0.68723857 0.24274144 -0.38951021 4283916384
0.68800658 0.25297639 -0.38856158 4284178274
0.68595046 0.26207036 -0.38998783 4284178784
0.67849499 0.28717983 -0.38102424 4284375394
0.68185407 0.28777474 -0.38632971 4284113505
0.67966533 0.29200408 -0.38148713 4284375394
0.68165749 0.2952179 -0.38556108 4284178785
0.67870665 0.30854556 -0.3845807 4284440673
0.68124437 0.30399942 -0.38592106 4284309600
0.66617858 0.31731716 -0.38473615 4284178532
0.67450964 0.31264964 -0.38518679 4284244066
0.65899307 0.32731619 -0.38085967 4284440416
0.6619944 0.32384536 -0.38514492 4284112995
0.65862554 0.33130124 -0.38077816 4284309342
0.66110963 0.33785012 -0.38097361 4284243808
0.66359329 0.34518492 -0.38279015 4284112221
0.66779989 0.35570925 -0.38430476 4283915094
0.66965908 0.3619625 -0.38431078 4283914839
0.67088842 0.36637953 -0.38533214 4283914840
0.66990799 0.37792426 -0.38020423 4283717462
0.67194384 0.37479201 -0.38516355 4283914583
0.66932511 0.38672969 -0.38067439 4284176726
0.67200428 0.38488901 -0.38525453 4283914328
0.66823679 0.39604887 -0.38229749 4284373590
0.6714046 0.39423069 -0.38688028 4284176725
0.66785932 0.40524486 -0.38539851 4284570458
0.6705547 0.40169686 -0.3888579 4284373335
0.66787875 0.41145632 -0.3863551 4285489992
0.67278457 0.43930012 -0.38745195 4294770679
0.6719923 0.44286799 -0.38723016 4294770682
0.69256538 -0.50487369 -0.37647128 4285624687
0.68971121 -0.4929204 -0.37687248 4285888115
0.69073462 -0.49552238 -0.37397081 4285888113
0.68882835 -0.48449862 -0.37463021 4285756786
0.69027925 -0.48915768 -0.37194848 4285821811
0.68895566 -0.47458529 -0.37440321 4285757300
0.69021517 -0.4710215 -0.37170419 4285690995
0.68988204 -0.46922076 -0.37535244 4285691252
0.69247419 -0.46492311 -0.37531555 4285690992
0.69489646 -0.45552567 -0.37450078 4285493869
0.69525659 -0.44467628 -0.37600133 4285493868
0.69780338 -0.43496183 -0.3758291 4285494127
0.70046067 -0.43089151 -0.37758383 4285559663
0.69889128 -0.42743972 -0.37194693 4285559153
0.70203102 -0.42441958 -0.37590384 4285625200
0.7038331 -0.41500169 -0.3750295 4285559406
0.70502722 -0.40515026 -0.37526938 4285165679
0.70637923 -0.39514145 -0.3766852 4285494130
0.70469964 -0.38461795 -0.3769531 4285691509
0.70097613 -0.37603152 -0.37773055 4285625973
0.69555897 -0.3646667 -0.37541264 4285756532
0.68998528 -0.35047224 -0.37814695 4285691254
0.69238925 -0.35623896 -0.37633315 4285690996
0.6875543 -0.34435815 -0.37198165 4285625461
0.69091672 -0.34811911 -0.37928343 4285428852
0.6855672 -0.33415043 -0.37366083 4285494644
0.68455452 -0.32469907 -0.37505013 4285494130
0.68723565 -0.31599271 -0.37468785 4285362544
0.69165611 -0.31158522 -0.37632233 4285296751
0.69178158 -0.30576706 -0.37430528 4285231471
0.69090402 -0.2995975 -0.37339902 4285231472
0.67371649 -0.27273062 -0.37447616 4284903021
0.67422205 -0.26489592 -0.3747046 4284837228
0.67777783 -0.25651363 -0.37435576 4284640362
0.68085068 -0.25224531 -0.37616733 4284508263
0.67914885 -0.24486391 -0.37334692 4285097832
0.68255073 -0.24484721 -0.37557903 4284639336
0.67917007 -0.23426516 -0.3736406 4285097828
0.68516928 -0.23547232 -0.37533766 4284573544
0.69010097 -0.23101312 -0.37107968 4284311402
0.67682636 -0.22528294 -0.3744607 4284966246
0.68858415 -0.22504766 -0.3757706 4284441957
0.69027662 -0.22707875 -0.37143123 4284311143
0.67408043 -0.21507521 -0.37406379 4284769123
0.68682718 -0.21546693 -0.37569216 4284376164
0.67483032 -0.20435874 -0.37410283 4284703843
0.68343395 -0.20435406 -0.37535211 4284310370
0.67969954 -0.19889705 -0.37568372 4284638309
0.68390316 -0.19514266 -0.3749944 4284375394
0.68611932 -0.18560953 -0.37447512 4284310113
0.69140774 -0.18408804 -0.37641799 4284703072
0.68755281 -0.17489167 -0.37465003 4284244579
0.69449973 -0.17583348 -0.37654021 4284506209
0.68898743 -0.16484934 -0.37419441 4284047711
0.69489396 -0.16534996 -0.37514207 4284177757
0.70002806 -0.16171847 -0.37951654 4284111195
0.6883046 -0.15501021 -0.37495896 4284113249
0.69420439 -0.15451209 -0.37482232 4284047196
0.68643022 -0.14430173 -0.37524956 4284178271
0.69136661 -0.14660662 -0.37420794 4284111963
0.67880845 -0.13346916 -0.37343132 4283981664
0.68478853 -0.13548051 -0.37517691 4284046940
0.67842555 -0.12466644 -0.37372875 4283916128
0.68199962 -0.12507364 -0.37522879 4283849819
0.67809987 -0.11516352 -0.3750959 4284111706
0.68181431 -0.11472832 -0.37524676 4283849820
0.67379344 -0.10503943 -0.37487766 4283914840
0.68345851 -0.1048419 -0.37472999 4283850076
0.66949213 -0.092033066 -0.37577367 4283783510
0.67103183 -0.096330896 -0.37399331 4283783768
0.68235177 -0.094781108 -0.37485704 4283784026
0.66831911 -0.085141249 -0.37484932 4283783253
0.68240494 -0.085160941 -0.37452376 4283783768
0.66817397 -0.07596913 -0.3736766 4283586645
0.67112166 -0.073733494 -0.37830162 4283717717
0.68500382 -0.074836046 -0.37434119 4283652954
0.6692459 -0.068572126 -0.37216359 4283652436
0.67293704 -0.063871674 -0.37498173 4283652182
0.68722814 -0.066320032 -0.37333223 4283587161
0.69116575 -0.063828044 -0.37845749 4283652441
0.67616278 -0.054894976 -0.37458429 4283586390
0.68641013 -0.054592926 -0.37202877 4283586648
0.69004285 -0.057644829 -0.37616014 4283718234
0.67727262 -0.044995777 -0.37518963 4283651668
0.68415529 -0.04460654 -0.37268466 4283586647
0.67711699 -0.034822199 -0.37481174 4283585875
0.68174386 -0.034751877 -0.37513119 4283848792
0.67875338 -0.02427407 -0.3750926 4283454803
0.68063992 -0.027663231 -0.37549961 4283586647
0.67871559 -0.01496448 -0.37496144 4283520083
0.68021429 -0.012926051 -0.37738433 4283323218
0.6778025 -0.005211297 -0.37528318 4283520338
0.67718101 0.0049243742 -0.37525356 4283520595
0.67628205 0.014903076 -0.37539652 4283389524
0.67603981 0.025232581 -0.37537363 4283520596
0.6803236 0.025069173 -0.37505949 4283126095
0.67806232 0.034054179 -0.37502533 4283520854
0.68074369 0.036354817 -0.37502235 4283455317
0.67988056 0.041559484 -0.37690505 4283061587
0.68251908 0.045039665 -0.3747606 4283586902
0.6797629 0.059066243 -0.37661496 4283652697
0.68364698 0.054552697 -0.37495154 4283784282
0.67898178 0.065570325 -0.37532642 4283850077
0.68485224 0.064727932 -0.37459049 4284441443
0.67874193 0.075595804 -0.37576851 4284310372
0.68406159 0.07501138 -0.37456739 4284967271
0.67702472 0.084926747 -0.37505475 4284573286
0.68450826 0.084894814 -0.37517118 4285295206
0.66994101 0.09956342 -0.37775442 4285034608
0.67229229 0.094896913 -0.37497938 4284836459
0.6861338 0.095116951 -0.37483096 4285164907
0.66822416 0.10509776 -0.37514228 4284771436
0.67045683 0.10141966 -0.37101966 4284836463
0.68700153 0.10506937 -0.37520498 4285295979
0.66762477 0.11472024 -0.3744311 4284901997
0.67866951 0.11755049 -0.37488106 4285361517
0.68324023 0.11270438 -0.37467209 4285361515
0.66891092 0.12455663 -0.37581012 4284639851
0.67663324 0.12516205 -0.37433568 4285295721
0.66971678 0.13174991 -0.37598833 4284639594
0.67449403 0.13463563 -0.37408441 4284902248
0.68095207 0.13719538 -0.3760286 4285164645
0.67485768 0.14533579 -0.37416065 4284638823
0.68118417 0.14470915 -0.37633821 4285098595
0.67598325 0.15490928 -0.37400985 4284573541
0.68090183 0.15578519 -0.37654501 4284640096
0.66913062 0.16788402 -0.37694001 4284244834
0.67301571 0.1639342 -0.37375903 4284310884
0.68225622 0.16556703 -0.37612265 4284835679
0.66650283 0.17483442 -0.37483001 4284114020
0.67847812 0.17715369 -0.37200031 4284966751
0.68202382 0.17486832 -0.37606394 4285032289
0.66300958 0.1848059 -0.37498188 4284047970
0.67871833 0.18416248 -0.37484241 4284573794
0.680776 0.18293542 -0.37837958 4284901478
0.65911716 0.19595037 -0.37491229 4284113249
0.66050136 0.19135529 -0.37527174 4284179299
0.65952927 0.20156783 -0.37424266 4284112993
0.66147512 0.20632726 -0.37567711 4283981921
0.66304821 0.21248513 -0.37528893 4283981664
0.67100441 0.25913081 -0.37318474 4284506210
0.67818516 0.28756446 -0.3787317 4284309858
0.67877322 0.29253152 -0.37875402 4284441445
0.66389704 0.31650093 -0.37479013 4284112993
0.67244625 0.31311098 -0.37967005 4284244067
0.65908498 0.32661366 -0.37419623 4284178273
0.66097122 0.3218466 -0.37534299 4284112993
0.65900004 0.33309412 -0.37463522 4284243809
0.66069496 0.33712515 -0.3742882 4284112480
0.66333497 0.3449007 -0.374899 4284112478
0.66702574 0.35471302 -0.3746554 4283783767
0.66875666 0.36508253 -0.37445432 4283914841
0.67021251 0.36795765 -0.37659132 4283981146
0.668562 0.37509984 -0.37336016 4283782999
0.6706965 0.37488979 -0.37907541 4283783510
0.66658622 0.38503486 -0.37321135 4283979859
0.67040813 0.38295561 -0.37944996 4283651926
0.66526812 0.39505297 -0.37428766 4284110931
0.66393942 0.40436587 -0.37477404 4284439379
0.66526717 0.41120452 -0.37599972 4285424698
0.69542998 -0.51398778 -0.36780614 4285822058
0.69243282 -0.50318629 -0.36491534 4285559662
0.6920957 -0.4947724 -0.36476895 4285691507
0.6894204 -0.48355874 -0.36695588 4285625458
0.69069749 -0.48490885 -0.36243403 4285625970
0.68963051 -0.47501683 -0.3658267 4285625716
0.69028693 -0.47437951 -0.36458695 4285494387
0.68961328 -0.46429607 -0.36185545 4285165933
0.69178116 -0.4651849 -0.36700106 4285493872
0.68972737 -0.45705661 -0.36028954 4285296747
0.69240099 -0.45652714 -0.36549065 4285428075
0.68978149 -0.44674882 -0.36175036 4285559149
0.69125646 -0.4435294 -0.36422935 4285296491
0.69324881 -0.43503118 -0.36509356 4285428076
0.69719535 -0.42564139 -0.36476743 4285297007
0.70061946 -0.42102885 -0.36939463 4285624432
0.69922441 -0.41751605 -0.36323437 4285165678
0.70107365 -0.41401225 -0.3658489 4285099371
0.69991446 -0.40839487 -0.36204737 4285034348
0.70154768 -0.40547585 -0.36450794 4285165164
0.70235604 -0.39683309 -0.36615404 4285230188
0.6961264 -0.36558822 -0.36801031 4285625203
0.686544 -0.34404311 -0.36715209 4285625462
0.6842503 -0.33492249 -0.3651436 4285559925
0.68488055 -0.32500455 -0.36493275 4285363058
0.6877206 -0.31523249 -0.36531943 4285231729
0.6905359 -0.31035808 -0.36232471 4285231729
0.68957317 -0.30370796 -0.36537358 4285231726
0.6907205 -0.30635482 -0.36441463 4285297520
0.687163 -0.29574549 -0.36439362 4285231728
0.67827374 -0.28058457 -0.36250257 4285099888
0.68089402 -0.28437033 -0.36216348 4285165682
0.67451125 -0.27470246 -0.36489812 4284968816
0.67185569 -0.2646454 -0.36496547 4284771692
0.67580229 -0.25486064 -0.36468196 4284770921
0.67857242 -0.24427792 -0.36480033 4285163880
0.68307048 -0.24443164 -0.36520451 4284639337
0.67896974 -0.23481989 -0.36502564 4285425766
0.68685281 -0.23578474 -0.36532497 4284442727
0.69029343 -0.23155253 -0.36840874 4284311655
0.67672527 -0.22461373 -0.36463115 4284966499
0.68848002 -0.22447777 -0.36417356 4284311400
0.69066232 -0.22754765 -0.36817074 4284245863
0.67564136 -0.21481265 -0.36485705 4284900708
0.68623233 -0.21587093 -0.36496645 4284310885
0.67743194 -0.20495671 -0.36511281 4284703588
0.68092251 -0.20504226 -0.36476374 4284310628
0.67990404 -0.19630156 -0.36264721 4284507236
0.68172443 -0.19514015 -0.36506939 4284375394
0.67986661 -0.18637702 -0.36049268 4284309601
0.68476826 -0.18486325 -0.36492154 4284375394
0.68760467 -0.17568123 -0.36583459 4284244065
0.69062752 -0.17261507 -0.36407974 4284178786
0.68851864 -0.16437177 -0.36525491 4284046940
0.691131 -0.16504891 -0.365484 4284112478
0.68832612 -0.15503 -0.36466187 4284112735
0.69139665 -0.15481851 -0.36584476 4284046941
0.68529248 -0.14479735 -0.36460757 4284047455
0.69107747 -0.14504991 -0.36532822 4284046683
0.67857158 -0.13220163 -0.3650305 4284047456
0.68533415 -0.1351794 -0.365114 4284111964
0.69056749 -0.13824444 -0.36666536 4284242778
0.67769456 -0.12450503 -0.3647393 4283981664
0.68308699 -0.12560821 -0.36574852 4283980889
0.67775637 -0.11556073 -0.36473399 4283915354
0.68099034 -0.11266197 -0.3674705 4283784028
0.67444062 -0.104683 -0.36484951 4283849303
0.68135083 -0.10496801 -0.36631328 4283719004
0.66929466 -0.09355922 -0.36194825 4283849046
0.67480177 -0.094606519 -0.36545646 4283718231
0.68069059 -0.096614942 -0.36643729 4283652954
0.66880774 -0.084801398 -0.36508223 4283783511
0.67889816 -0.087045282 -0.36525166 4283718235
0.68109709 -0.08298739 -0.36361223 4283717976
0.66800344 -0.074805811 -0.36501008 4283586648
0.68468851 -0.075096734 -0.36483392 4283848792
0.66862112 -0.066240013 -0.36442801 4283586391
0.67083317 -0.061501171 -0.3653996 4283520342
0.68570471 -0.065146223 -0.36414853 4283717719
0.67207116 -0.055122882 -0.36443922 4283454805
0.68339026 -0.054883789 -0.36442703 4283586645
0.67267871 -0.045010012 -0.36458114 4283454550
0.68236655 -0.044867299 -0.36451021 4283586644
0.67281854 -0.034656957 -0.36444592 4283519826
0.68146646 -0.035117414 -0.36490706 4283586647
0.67552882 -0.025194801 -0.36560988 4283323217
0.68163306 -0.025039477 -0.36424991 4283520597
0.67745906 -0.014928406 -0.3658796 4283454546
0.6816926 -0.01567114 -0.36257523 4283520339
0.67582834 -0.0050830692 -0.36470631 4283519826
0.67544889 0.0051671267 -0.3646844 4283454546
0.66998231 0.010325544 -0.36135769 4282994509
0.67472637 0.015143001 -0.36479706 4283520339
0.67447472 0.025129979 -0.3647548 4283520594
0.67733133 0.034074984 -0.36513114 4283389524
0.68224233 0.037440568 -0.36397913 4283717974
0.67865866 0.04448615 -0.36341482 4283323474
0.68408167 0.045180548 -0.36548141 4283652438
0.67933345 0.055497594 -0.3635146 4283455318
0.68465233 0.054678652 -0.3655968 4283915097
0.67957628 0.062745847 -0.36391962 4283456090
0.68429101 0.065347686 -0.36537325 4284244062
0.68362254 0.074743927 -0.36504602 4284507490
0.6783703 0.085768141 -0.36489707 4284573285
0.68511087 0.084529221 -0.36504227 4285295209
0.67449605 0.094853036 -0.36508572 4284704872
0.68669224 0.094991133 -0.36444175 4285361517
0.66933459 0.10612335 -0.36928245 4284705646
0.67211187 0.10509709 -0.36456931 4284639851
0.68750888 0.10511438 -0.36480618 4285230188
0.66978443 0.11623985 -0.36893508 4284770155
0.67349052 0.11605881 -0.36452651 4284967786
0.68288881 0.11374144 -0.36486813 4285295721
0.6697554 0.12067969 -0.36991358 4284770922
0.67476302 0.12501308 -0.36492872 4285033065
0.6697166 0.13559629 -0.36158952 4284573549
0.67504328 0.13503228 -0.36508855 4284967528
0.66914642 0.14459109 -0.36130121 4284376425
0.67606783 0.14518215 -0.36517283 4284770152
0.67617399 0.15496294 -0.36443621 4284900965
0.6698395 0.16966434 -0.36466581 4284047712
0.67634994 0.16510974 -0.36498848 4284704099
0.68014288 0.16703096 -0.36141491 4285031267
0.66677421 0.17515163 -0.36476892 4284244578
0.67744404 0.17526716 -0.36482304 4284900960
0.68035007 0.17183228 -0.36131302 4285227872
0.65945619 0.18875393 -0.36271194 4284113508
0.6623776 0.18442859 -0.36520904 4284244579
0.67389822 0.18256328 -0.36488891 4284835423
0.65809792 0.19505218 -0.36457965 4284047458
0.66032046 0.19085295 -0.36914402 4284113506
0.65785921 0.20483126 -0.36489394 4283916384
0.65951693 0.21371274 -0.3642692 4284178786
0.66049421 0.21166487 -0.36744785 4284047200
0.66261035 0.30606109 -0.36306962 4284243553
0.65967977 0.31528285 -0.36190066 4284309091
0.6621781 0.31527182 -0.36646119 4284243809
0.65979522 0.32704973 -0.36767116 4284112738
0.66087592 0.32500824 -0.36535636 4284243553
