# .PCD v0.7 - Point Cloud Data file format
VERSION 0.7
FIELDS x y z rgb
SIZE 4 4 4 4
TYPE F F F U
COUNT 1 1 1 1
WIDTH 383
HEIGHT 1
VIEWPOINT 0 0 0 1 0 0 0
POINTS 383
DATA ascii
0.70772982 -0.37316707 -0.51602894 4286282103
0.70457369 -0.32771263 -0.50838083 4286150515
0.70476878 -0.27490404 -0.50656486 4285952363
0.69916457 -0.22475182 -0.50516009 4285951849
0.70043582 -0.23228803 -0.51152903 4286477928
0.69953692 -0.17400219 -0.50364286 4285229672
0.70093465 -0.17415865 -0.50717592 4285688675
0.69786203 -0.1272012 -0.50773507 4285228898
0.70079124 -0.12193661 -0.51371539 4285754722
0.69652587 -0.07157243 -0.50474185 4285229927
0.70062917 -0.098234728 -0.51192266 4285689960
0.69703293 -0.031538393 -0.50331926 4284901732
0.70197612 -0.012761867 -0.5066843 4285427049
0.68853891 0.0051844055 -0.50053543 4285295462
0.71107984 0.029414002 -0.51553094 4285427051
0.6971513 0.14068444 -0.50493246 4286216049
0.70785743 0.11742585 -0.51146096 4286939258
0.69495302 0.17721669 -0.50586003 4285623397
0.69559288 0.20311147 -0.50473845 4285160788
0.707335 -0.4569563 -0.45937967 4286545787
0.69993705 -0.42684987 -0.45509961 4286743940
0.70231158 -0.4210884 -0.46321416 4286611840
0.69866294 -0.36289695 -0.46184319 4285823096
0.70117444 -0.392441 -0.45519328 4286086524
0.69940132 -0.34783462 -0.47062841 4285559667
0.70371163 -0.32658184 -0.4730351 4285362545
0.70393658 -0.27033058 -0.47939426 4285164652
0.69644111 -0.22088575 -0.47414756 4285163880
0.70019513 -0.24725668 -0.47800311 4285229931
0.69753677 -0.17815609 -0.47339925 4284835173
0.70122147 -0.16899212 -0.45537925 4284703072
0.69393557 -0.12457635 -0.47164726 4284572258
0.69208169 -0.071842216 -0.47939211 4284572256
0.69431341 -0.021989344 -0.47822079 4284375135
0.70137733 -0.0028681878 -0.49373841 4284704356
0.69512606 0.012441428 -0.46762595 4284441185
0.70365483 0.010224737 -0.4930408 4284900707
0.68999863 0.12794946 -0.47372952 4286347640
0.70234758 0.11032382 -0.49219054 4286676347
0.68732405 0.1753557 -0.47652024 4285427051
0.68551165 0.22408195 -0.48223758 4284309598
0.68060237 0.33466306 -0.46403483 4284573286
0.67624998 0.35873124 -0.45840371 4284704612
0.69932342 -0.50688088 -0.40108028 4285559146
0.70933151 -0.5129475 -0.42770484 4285821805
0.69757694 -0.45034963 -0.40204051 4285494901
0.69916528 -0.43257314 -0.42179334 4286348667
0.70199639 -0.41151187 -0.41658971 4286282874
0.6994192 -0.35324374 -0.40361091 4285822838
0.70343411 -0.38051316 -0.42761141 4286085752
0.70566052 -0.32250163 -0.43071324 4285231215
0.69005138 -0.25625694 -0.42314017 4284836458
0.70234156 -0.28747496 -0.44046795 4284968301
0.6888786 -0.22503677 -0.42400461 4284835429
0.6923821 -0.17545353 -0.42294291 4284375649
0.70121509 -0.16256534 -0.44336173 4284506209
0.69355124 -0.12403751 -0.42472905 4284178014
0.70004684 -0.14755814 -0.44748706 4284440414
0.69175571 -0.071723528 -0.42426032 4283980891
0.68971896 -0.026968617 -0.42629713 4283849048
0.68728048 0.024759278 -0.42571998 4284046941
0.67953753 0.079668812 -0.41014031 4285953908
0.67845899 0.12412872 -0.42173758 4286019189
0.67995918 0.17418407 -0.42561027 4285033064
0.67598224 0.23773207 -0.41292426 4284113249
0.6755619 0.2725012 -0.41560489 4284179043
0.67592299 0.32011798 -0.42276025 4284310116
0.67554241 0.37681764 -0.429028 4284506205
0.67604113 0.40125853 -0.41056672 4285555025
0.69573778 -0.50314105 -0.38817859 4285821804
0.69155729 -0.47267386 -0.36894676 4285559664
0.69681376 -0.43219036 -0.36875722 4285362542
0.70223373 -0.41319093 -0.38027522 4285362542
0.69636101 -0.36197543 -0.38300115 4285757045
0.70467091 -0.39285022 -0.38942385 4285757301
0.68967116 -0.32142177 -0.37065354 4285363057
0.70031017 -0.31250581 -0.39877748 4284969070
0.68092012 -0.2644386 -0.37404507 4284837228
0.68227702 -0.2257552 -0.37330264 4284704357
0.68775433 -0.17373168 -0.37732151 4284244063
0.68335795 -0.12410843 -0.37471327 4283980891
0.68084514 -0.075549252 -0.37622941 4283717719
0.68019181 -0.026925102 -0.37405288 4283520340
0.67909062 0.027457835 -0.37486413 4283520597
0.68121016 0.072449706 -0.37723976 4284572771
0.67591286 0.12252604 -0.37770995 4285033323
0.671413 0.17562036 -0.37503046 4284507235
0.66549695 0.2120631 -0.38682657 4284047457
0.68285811 0.27201307 -0.39394134 4284244322
0.66716462 0.32266456 -0.37534189 4284178272
0.66721207 0.3806611 -0.37340894 4284045653
0.66869056 0.4246639 -0.38050523 4291413429
0.68847018 -0.50098664 -0.32218128 4286215529
0.68914866 -0.48060992 -0.32869732 4285361771
0.69004768 -0.42492679 -0.32889658 4285230701
0.67989409 -0.37502301 -0.31423244 4285165422
0.68163836 -0.3302685 -0.32734996 4285428850
0.68497115 -0.27303791 -0.33285365 4285363058
0.68060106 -0.22174802 -0.32464454 4284901992
0.67740172 -0.17779279 -0.32455572 4284375649
0.67652911 -0.12288899 -0.32594082 4283717976
0.67692512 -0.078549705 -0.32571611 4283191631
0.67780864 -0.023056319 -0.32513401 4282862665
0.67620367 0.023346635 -0.32765713 4282928458
0.68033022 0.078105681 -0.32644272 4284178269
0.67503053 0.1243915 -0.32627594 4284572770
0.6709494 0.171235 -0.32684922 4284178269
0.66637719 0.32644358 -0.3221415 4283717719
0.66303736 0.37795278 -0.32636452 4283979859
0.66077435 0.40363106 -0.33731806 4285817932
0.68886834 -0.50296593 -0.27596185 4285492319
0.68896586 -0.47928569 -0.2786997 4284901991
0.681669 -0.42377126 -0.27637559 4284902249
0.67519462 -0.37174419 -0.27528214 4284836714
0.67270976 -0.32840255 -0.27290371 4284902249
0.67491776 -0.27553499 -0.27602223 4284902762
0.67886019 -0.22134849 -0.27443126 4284770918
0.67705894 -0.17607893 -0.27659991 4284441440
0.67357081 -0.12502173 -0.28019175 4283849560
0.67436773 -0.074361801 -0.27387241 4282994250
0.67305994 -0.023449399 -0.27683124 4282665028
0.67230332 0.022875413 -0.27716818 4282599492
0.67113936 0.07452967 -0.27301651 4283191371
0.67122328 0.12550411 -0.27598006 4283388492
0.66715997 0.17307849 -0.27282968 4283520596
0.66256905 0.22387366 -0.27299052 4283192660
0.66145074 0.27516338 -0.27610448 4283257425
0.66353679 0.31939876 -0.27035269 4283256910
0.66464889 0.37554193 -0.27418029 4283387980
0.66003853 0.40799239 -0.26919654 4286871120
0.6874966 -0.50280368 -0.22226252 4285294944
0.68844193 -0.47611046 -0.22542374 4284901478
0.6871019 -0.42236406 -0.22492638 4284770406
0.68814862 -0.38379416 -0.22470044 4284704871
0.67171961 -0.32238188 -0.2243928 4284573540
0.67598945 -0.27750605 -0.22367072 4284441955
0.67520845 -0.21953239 -0.22712083 4284310112
0.67264199 -0.1767704 -0.22394042 4284046939
0.67158413 -0.12511644 -0.22107708 4283586130
0.67224592 -0.075352684 -0.22511524 4282993992
0.67108047 -0.021167155 -0.22479454 4282730563
0.66814852 0.023980113 -0.22502799 4282730563
0.66861546 0.074739188 -0.22781372 4283059528
0.66666585 0.12169439 -0.22363222 4283388751
0.66702676 0.17088313 -0.22678201 4283191630
0.66132271 0.22758029 -0.22636661 4282862924
0.65834504 0.27457839 -0.22063193 4282730824
0.65995997 0.32566026 -0.22336496 4283125067
0.64837521 0.3935836 -0.20515147 4283451714
0.65842736 0.37529516 -0.2269558 4283387465
0.64774853 0.40232497 -0.20229781 4284961845
0.65494114 0.40294367 -0.22983912 4284568377
0.67890668 -0.50214446 -0.18239157 4285557857
0.67902237 -0.47516239 -0.17390455 4284704098
0.68050128 -0.42681366 -0.17283177 4284770149
0.68113595 -0.3736501 -0.17393169 4284638821
0.6751498 -0.32641464 -0.17886844 4284770407
0.6731922 -0.27676335 -0.17278314 4284573283
0.66984248 -0.22765739 -0.17501646 4284441954
0.67021441 -0.17550564 -0.17491235 4284112476
0.66971022 -0.12516306 -0.1748358 4283586130
0.67041242 -0.07201986 -0.17401443 4282928199
0.66911578 -0.02538131 -0.17685159 4282730306
0.66548896 0.022721419 -0.17507146 4282730306
0.66227865 0.07581789 -0.17190583 4283256906
0.66177267 0.1257917 -0.17196077 4283585873
0.65962267 0.17487131 -0.17374933 4283125839
0.6578818 0.22407971 -0.1770808 4283060045
0.65910763 0.27504516 -0.17470431 4282796615
0.65808409 0.32451746 -0.1797744 4282467392
0.64904666 0.3937189 -0.1887725 4282926142
0.65470076 0.37187043 -0.17286617 4282335034
0.64809257 0.4028134 -0.18856812 4284369968
0.65121746 0.4029007 -0.16401155 4283647022
0.6764465 -0.50362748 -0.12334027 4284110410
0.67789739 -0.47460502 -0.12320105 4283585362
0.67951864 -0.42755291 -0.12372632 4283717203
0.67808908 -0.37677535 -0.1257145 4283717202
0.67172158 -0.31945211 -0.12758853 4283651411
0.66963786 -0.27594906 -0.12720425 4283520081
0.66860676 -0.22416936 -0.12659653 4283388751
0.66934109 -0.17459475 -0.1236843 4283256652
0.66844481 -0.12437582 -0.12500836 4283125322
0.66658884 -0.072626263 -0.12466179 4282993477
0.665039 -0.021954803 -0.12047741 4282927170
0.66274571 0.025589556 -0.13028245 4282861376
0.66079313 0.075451203 -0.12495569 4282993220
0.6599521 0.12594377 -0.12584655 4282861377
0.65860188 0.1741299 -0.12421766 4282467649
0.65406734 0.22707367 -0.12209308 4282072377
0.64964712 0.29750508 -0.1059155 4281348912
0.65398037 0.27384192 -0.12363373 4281677364
0.64938039 0.3236531 -0.11445268 4281611055
0.65207964 0.3295773 -0.12750247 4281742898
0.65424287 0.37624425 -0.12274113 4281873970
0.65288252 0.40287417 -0.1212459 4283384615
0.67562813 -0.51723665 -0.069073871 4284438086
0.67842376 -0.47833475 -0.075650983 4283454036
0.68022823 -0.42508757 -0.076174356 4283849050
0.674716 -0.37042841 -0.076058686 4283519570
0.6746515 -0.32676861 -0.072316028 4283190858
0.67101014 -0.27340588 -0.072164699 4283125066
0.67011678 -0.22584037 -0.075280018 4283059272
0.66969001 -0.17355639 -0.075524993 4282927688
0.66805834 -0.12878403 -0.070967019 4282993737
0.66592336 -0.068964511 -0.073997259 4283125065
0.66366041 -0.0289285 -0.076534517 4282927685
0.66206133 0.025326381 -0.07230933 4282992964
0.6602897 0.075593121 -0.079018734 4282927171
0.65975231 0.12320275 -0.074940749 4282401085
0.65671587 0.16912787 -0.073178001 4282270015
0.65739626 0.22858809 -0.071745202 4281875000
0.65523309 0.27359942 -0.075790122 4281742643
0.64983457 0.30925733 -0.098951578 4281348912
0.65488762 0.32777151 -0.077914305 4281808435
0.65480661 0.37434611 -0.079470627 4281874227
0.65413755 0.40738899 -0.074166223 4283714608
0.67676365 -0.52670622 -0.020532807 4291480256
0.68149483 -0.47733149 -0.01862983 4283127908
0.68199992 -0.43148708 -0.026139826 4285168781
0.70736629 -0.42100987 -0.0056541422 4280234046
0.68597329 -0.36744255 -0.01380622 4283657597
0.70209342 -0.39732325 -0.0052385451 4279913580
0.67824537 -0.32510093 -0.024355484 4282535510
0.67222476 -0.27219594 -0.022597797 4282732116
0.6715104 -0.22146523 -0.024414789 4282863958
0.67082548 -0.17532238 -0.025358494 4282863700
0.66984636 -0.12518731 -0.024208697 4282994772
0.6689654 -0.075846076 -0.024494575 4282403148
0.66631782 -0.026470231 -0.022543909 4281745734
0.6661371 0.027185408 -0.01927845 4281482821
0.66338247 0.074649297 -0.022269288 4282468686
0.66316825 0.12605621 -0.022205127 4282008906
0.66252542 0.1756625 -0.020088734 4281154112
0.66224521 0.22507256 -0.020789111 4281087288
0.66253221 0.27582169 -0.017924085 4281086517
0.6604439 0.32362083 -0.020999337 4281086260
0.64957434 0.39537871 -0.01333607 4278393124
0.65792823 0.37428996 -0.018123643 4280955445
0.64783919 0.44024986 -0.012356468 4293915116
0.65178639 0.41924381 -0.021779045 4287071863
0.681099 -0.50740361 0.0029609909 4286085749
0.68759292 -0.47688553 0.021201067 4279775556
0.6966387 -0.44196901 0.020223547 4279842382
0.70528114 -0.42087987 0.028659517 4278790211
0.69278753 -0.37026793 0.022284996 4279118142
0.70377624 -0.39443755 0.035116021 4278462018
0.68423516 -0.32259089 0.022232294 4279118144
0.67997706 -0.27577019 0.023230325 4278987074
0.67724413 -0.22330612 0.023260962 4279053382
0.67544204 -0.17551412 0.023185153 4279447364
0.6719107 -0.12597187 0.022145061 4279447622
0.67177463 -0.07488323 0.021895427 4279315521
0.67158091 -0.022465693 0.026301596 4279052349
0.67030978 0.024501177 0.024868999 4278855485
0.66916251 0.073823668 0.0257969 4278790207
0.66991985 0.12520821 0.022883127 4279183934
0.66927493 0.17504656 0.021593507 4278920761
0.6683324 0.22139029 0.019040853 4279379764
0.66841924 0.27968308 0.020546777 4279575597
0.66521031 0.32468027 0.022002613 4279115048
0.66660035 0.37478077 0.020901507 4279181098
0.65612036 0.41753525 0.016010445 4282931802
0.6891461 -0.50281018 0.079329528 4278398031
0.68899161 -0.47543198 0.072465166 4278395452
0.69629341 -0.4369401 0.080163106 4278461503
0.70452458 -0.41835287 0.07117027 4278460986
0.69475126 -0.36675572 0.07016255 4278328627
0.70236194 -0.38696274 0.089282684 4278527296
0.68962342 -0.32443491 0.076359041 4278331722
0.68318266 -0.27594796 0.074974835 4278331980
0.67954034 -0.2204276 0.076636501 4278463049
0.67879117 -0.17763409 0.077809326 4278528583
0.67561692 -0.12613256 0.077437557 4278593602
0.67242825 -0.075516559 0.07599587 4278593087
0.67229086 -0.023113316 0.072134472 4278461501
0.67145622 0.026357869 0.071152635 4278460986
0.67068452 0.075055592 0.074644156 4278461757
0.67117345 0.12622951 0.076876238 4278461242
0.67142826 0.17482196 0.074309722 4278459954
0.67112106 0.22179726 0.074593194 4278393644
0.67378718 0.27511549 0.075272657 4278392613
0.6742186 0.3239527 0.075554967 4278457633
0.67624652 0.37865609 0.072884455 4278391839
0.66034931 0.41185123 0.073142327 4280496420
0.69509029 -0.50625992 0.12611699 4279384919
0.69486338 -0.47707367 0.11958367 4278464596
0.70366943 -0.47148749 0.14321829 4278533478
0.69543374 -0.43770549 0.11537518 4278464337
0.70609432 -0.41775733 0.12998565 4278533218
0.70554805 -0.37675095 0.11585975 4278465366
0.69596004 -0.33066502 0.10633096 4278401118
0.70035332 -0.34756961 0.11278056 4278466911
0.68874782 -0.26548117 0.11019029 4278534503
0.68622595 -0.2206036 0.11817987 4278862180
0.67992449 -0.023056095 0.12795156 4278796900
0.67608637 0.020028884 0.11241203 4278795871
0.68285793 0.075461693 0.12497861 4279060845
0.67966598 0.1186448 0.125487 4278993252
0.67900503 0.1810122 0.12637044 4278792784
0.67582333 0.21807261 0.124978 4278725961
0.67632765 0.27629182 0.13175918 4278658104
0.67420328 0.32969457 0.12513858 4278525487
0.67191052 0.37259606 0.12430128 4278459179
0.66544169 0.42129251 0.12313824 4281293165
0.69785202 -0.50602454 0.16153921 4279583583
0.7061466 -0.50796592 0.18474036 4279257967
0.69997984 -0.49621785 0.15305956 4278598758
0.72564143 -0.48029336 0.18014283 4279917446
0.71877384 -0.41233167 0.1594968 4281959851
0.69816589 0.088845707 0.15337843 4280379281
0.71134061 0.073228002 0.1747496 4283468710
0.6981954 0.12379444 0.15495571 4279720836
0.70465273 0.12128481 0.16544022 4282815426
0.69564724 0.17609227 0.15456067 4279256685
0.70332628 0.16444522 0.16137935 4281300386
0.68142569 0.29159981 0.15343809 4278922305
0.67698437 0.32763475 0.16585691 4280699488
0.67534226 0.37290448 0.18117389 4279844438
0.63520068 0.43562633 0.18083464 4285582332
0.6833477 0.41039371 0.17190576 4279117102
0.71375036 -0.50825733 0.22086106 4279918727
0.72363377 -0.4909488 0.22536646 4279913585
0.71539366 0.097910702 0.20198682 4293192409
0.71672207 0.12051252 0.20944691 4293060055
0.68646544 0.38846028 0.22262572 4281229438
0.70064473 0.38844573 0.24730304 4282867312
0.64730322 0.44143879 0.20024823 4285517564
0.67146611 0.42304307 0.2224644 4282217098
0.71324247 -0.50738823 0.27622446 4281961139
0.72092217 -0.48726997 0.27278954 4279054154
0.69737923 0.39703855 0.25856492 4279845983
0.70460922 0.3942264 0.27577832 4280239967
0.68654549 0.42409456 0.27927649 4281756036
0.70350766 0.40307349 0.29556781 4279913578
0.68538165 0.45658463 0.27502486 4285385211
0.72006279 -0.50711972 0.3174617 4279788431
0.72904623 -0.48781961 0.32374504 4279053641
0.71328431 0.39592925 0.32281333 4280636012
0.69599122 0.41886139 0.30496004 4279578942
0.70513219 0.41350937 0.3294327 4280567891
0.73406965 -0.50772458 0.3701919 4279323249
0.74075502 -0.4881978 0.37850648 4279119433
0.71849632 0.39574876 0.37811401 4281098624
0.71186244 0.41301313 0.37816089 4280635493
0.74113083 -0.50558275 0.42129743 4279321706
0.74346691 -0.49322432 0.41107532 4278923342
0.76586133 -0.49016881 0.44854489 4281491069
0.73430109 0.39101374 0.42755303 4282020498
0.71068615 0.43502125 0.4265705 4282809753
0.70231837 0.45055306 0.44925725 4285187325
0.74873304 -0.51333898 0.45633322 4279517802
0.75692624 -0.51012611 0.48361662 4279651443
0.77087349 -0.49644613 0.48328397 4279318874
0.72520918 0.42619628 0.47341797 4281296002
0.754399 0.40541133 0.48535293 4282482851
0.70446575 0.45047271 0.46218982 4285318397
0.75961173 -0.50426805 0.509893 4279652988
0.7695753 -0.49100634 0.53274351 4279649642
0.76131707 0.39577064 0.52592719 4281756041
0.72242153 0.4386121 0.50987905 4283537091
0.75692493 0.40721974 0.54576284 4282021016
0.77651161 0.039754592 0.59843129 4279319639
0.77585155 0.072737686 0.59664613 4279978342
0.76582235 0.13260664 0.59537363 4279382344
0.76418173 0.15937683 0.59759212 4279249986
0.76281059 0.2434935 0.59384882 4280236883
0.75784338 0.28069407 0.59171969 4279380288
0.76305735 0.31782365 0.59564012 4279972163
0.76712841 0.37962112 0.58574331 4279380538
0.75903714 0.4078719 0.56761873 4282150024
0.78226441 -0.41799718 0.60496068 4279119947
0.79908693 -0.38999048 0.62322915 4279250762
0.80502653 -0.3842569 0.62850952 4279053641
0.79455715 -0.31700012 0.632231 4279907397
0.80502784 -0.33193454 0.63259947 4279447104
0.7777428 0.019051267 0.6080156 4279249984
0.78183126 0.077404454 0.61247075 4279315262
0.77487278 0.10830273 0.60726482 4279183161
0.76760745 0.18190183 0.60399908 4279183159
0.76521152 0.23054239 0.60682952 4279117367
0.75903505 0.25432464 0.60212457 4279379764
0.76687354 0.33500803 0.60089827 4279186510
