# .PCD v0.7 - Point Cloud Data file format
VERSION 0.7
FIELDS x y z rgb
SIZE 4 4 4 4
TYPE F F F U
COUNT 1 1 1 1
WIDTH 490
HEIGHT 1
VIEWPOINT 0 0 0 1 0 0 0
POINTS 490
DATA ascii
0.80386764 -0.18861893 -0.69681329 4278953437
0.8038677 -0.18861893 -0.69681329 4279738843
0.79900312 -0.20774961 -0.67936617 4280852694
0.79900312 -0.20774961 -0.67936617 4281898181
0.80214399 -0.19649446 -0.68917614 4279803865
0.8038677 -0.18861896 -0.69681329 4280066263
0.80614877 -0.1441388 -0.68419778 4280325839
0.75169098 0.24395347 -0.65111625 4284706160
0.75169104 0.24395347 -0.65111625 4284968818
0.75169098 0.24395347 -0.65111625 4284640625
0.7690444 0.29821575 -0.65788639 4284837233
0.70296127 0.33635625 -0.64747709 4284114024
0.7690444 0.29821575 -0.65788639 4284902513
0.70333356 0.36700621 -0.64783794 4284442988
0.70554805 0.39397749 -0.65045667 4286018933
0.79418683 0.35608372 -0.6552875 4294574077
0.70478892 0.40455711 -0.65256155 4294770682
0.70962799 0.40589356 -0.65041745 4294770682
0.74661654 0.47127533 -0.65348774 4291545542
0.74661654 0.47127533 -0.65348768 4294836216
0.74630088 -0.075205721 -0.61365414 4294770426
0.74976075 -0.072754666 -0.62317985 4294704634
0.75070852 -0.037549533 -0.62155229 4294506999
0.75070852 -0.037549533 -0.62155229 4294639098
0.75169104 0.24395347 -0.65111625 4284640111
0.75169104 0.24395347 -0.65111625 4284706415
0.70111942 0.34771127 -0.64807898 4283389268
0.70155954 0.34165528 -0.6471135 4284112226
0.70301139 0.35671645 -0.64608938 4283651670
0.70478427 0.37256572 -0.64832348 4287992981
0.77313948 0.37731656 -0.64620292 4294639613
0.70478892 0.40455711 -0.65256155 4294770683
0.72406769 0.41014528 -0.64723653 4294770681
0.74661654 0.47127533 -0.65348774 4287729047
0.74661654 0.47127533 -0.65348768 4292994020
0.70667952 -0.25125489 -0.56435513 4294243313
0.70667952 -0.25125489 -0.56435513 4294638320
0.74198991 -0.090587467 -0.59697354 4294901753
0.74380827 -0.084311306 -0.60420704 4294835956
0.70598006 0.14719899 -0.56887943 4283838489
0.70598006 0.14719899 -0.56887943 4283772701
0.70185626 -0.34777009 -0.51464546 4286610297
0.70113045 -0.35554531 -0.51569408 4286150775
0.70185626 -0.34777009 -0.51464546 4286610552
0.70069188 -0.34164634 -0.51514155 4285953651
0.70216066 -0.26900229 -0.49862489 4286017643
0.7003094 -0.26865724 -0.50763845 4285558893
0.70010704 -0.22692485 -0.50040966 4285951596
0.69936484 -0.22379676 -0.51031762 4285821034
0.70048726 -0.17605489 -0.51031041 4285164394
0.70048726 -0.17605489 -0.51031041 4285623140
0.70047998 -0.12866625 -0.5136137 4285097829
0.70047998 -0.12866625 -0.5136137 4285557603
0.69437736 -0.075160071 -0.4972066 4285229412
0.69502521 -0.075331308 -0.50803185 4285164391
0.69520015 -0.024857106 -0.49637845 4284901221
0.69643366 -0.022774387 -0.50720251 4285098855
0.68282998 0.010163533 -0.501993 4285032806
0.71198708 0.02803098 -0.51629335 4285295978
0.71646345 0.06539607 -0.52099085 4285887860
0.69255215 0.15749961 -0.50815654 4286150258
0.70667422 0.11475409 -0.5041905 4286873467
0.69695371 0.16370952 -0.51115537 4285361257
0.69926763 0.17423905 -0.51225102 4286017385
0.69293326 0.21465309 -0.50253242 4284964439
0.69611746 0.21049809 -0.51298034 4285816911
0.6874702 0.27204755 -0.49673295 4283058501
0.70713145 -0.45598379 -0.45749116 4286743168
0.70133352 -0.4204427 -0.46293795 4286743426
0.70133352 -0.4204427 -0.46293795 4286611584
0.69947368 -0.35881218 -0.46418485 4285823095
0.6995343 -0.37018424 -0.46478453 4286020218
0.69948196 -0.34258869 -0.46043795 4285493875
0.70209259 -0.32950577 -0.4693355 4285362544
0.70239341 -0.26480508 -0.47315302 4285361259
0.69955134 -0.26405597 -0.48370203 4285164652
0.6980468 -0.22817893 -0.47718567 4285295209
0.69709086 -0.22736232 -0.48681283 4285098603
0.69988 -0.17590773 -0.47102952 4284835173
0.69988 -0.17590773 -0.47102952 4284769379
0.6968751 -0.12498035 -0.46566293 4284572514
0.69906837 -0.12908363 -0.45772362 4284309856
0.69376898 -0.077753045 -0.47796097 4284506464
0.69678777 -0.080159321 -0.46499181 4284244063
0.69483566 -0.024064427 -0.48365566 4284243549
0.6981104 -0.023143169 -0.47395399 4284375391
0.69920141 0.019740066 -0.4636184 4284244320
0.69842112 0.01442789 -0.47132897 4284769635
0.6998778 0.10067075 -0.48429051 4287070590
0.6998778 0.10067075 -0.48429051 4286610810
0.68787962 0.12998712 -0.47212309 4286282103
0.7027126 0.10520998 -0.49251461 4286676346
0.69374138 0.17200281 -0.46246129 4285427051
0.6963039 0.17064486 -0.45762825 4286213998
0.68904197 0.21736316 -0.4948599 4284506722
0.69204313 0.26884717 -0.49157366 4283915100
0.69651186 0.26686671 -0.48546264 4284112994
0.69879591 -0.50701517 -0.40219733 4285558633
0.69895256 -0.46122488 -0.41242495 4285625716
0.69895256 -0.46122488 -0.41242495 4285888374
0.70052254 -0.4205206 -0.41798425 4286480509
0.70187491 -0.41920391 -0.40653273 4286151288
0.70064837 -0.36646226 -0.43311572 4286020731
0.70169145 -0.37627098 -0.43066359 4286085752
0.70051426 -0.34517834 -0.44213685 4285494388
0.70257783 -0.33591056 -0.43514204 4285297008
0.69639546 -0.27130195 -0.43396568 4284967530
0.69639546 -0.27130195 -0.43396568 4285099373
0.6861493 -0.22466767 -0.41708526 4284769893
0.70278955 -0.22636725 -0.44257176 4285163365
0.69742578 -0.17191753 -0.42682627 4284375649
0.69742578 -0.17191753 -0.42682627 4284637537
0.69827068 -0.1306698 -0.43218595 4284178014
0.69998455 -0.12873182 -0.44130233 4284374879
0.69625986 -0.067619264 -0.4222987 4284046427
0.69977617 -0.056158412 -0.414289 4283980892
0.69522643 -0.031030629 -0.4286848 4283849305
0.69766802 -0.040671412 -0.4260796 4283915355
0.68501085 0.024048155 -0.42182401 4283981148
0.69626284 0.022090504 -0.45547223 4284506718
0.68035245 0.077379256 -0.41163117 4285887858
0.67732126 0.12769961 -0.42092219 4285822323
0.68027824 0.17439778 -0.42438209 4285164137
0.70136678 0.16829266 -0.44956651 4285886572
0.67510635 0.23119681 -0.41685492 4284179043
0.67526102 0.27212825 -0.41856056 4284179044
0.67578214 0.32036039 -0.42374581 4284375908
0.67610627 0.37514359 -0.4295435 4284375135
0.69259524 -0.50572962 -0.37058565 4285756269
0.69158041 -0.47199613 -0.37291428 4285625457
0.70009649 -0.42499977 -0.37637293 4285362542
0.70255196 -0.41528535 -0.38641068 4285493872
0.69493681 -0.36311063 -0.37718379 4285756788
0.70520937 -0.40439707 -0.38277882 4285625459
0.68744242 -0.32089436 -0.36850387 4285428593
0.70194536 -0.30906591 -0.39467403 4284903278
0.67811638 -0.26631096 -0.37152213 4284902764
0.6819784 -0.22529463 -0.37433192 4284704358
0.69454968 -0.170762 -0.38136974 4284309856
0.69454968 -0.170762 -0.38136974 4284374619
0.68302852 -0.12560908 -0.37393597 4283981148
0.67907006 -0.075025894 -0.37099576 4283717719
0.70218068 -0.056037467 -0.4046278 4283849304
0.67918855 -0.023899695 -0.37285033 4283520340
0.70218068 -0.056037467 -0.4046278 4283849301
0.67848063 0.024920437 -0.37432557 4283520853
0.68116546 0.075748205 -0.37497544 4284704613
0.67663342 0.12406448 -0.37383592 4285033322
0.6732139 0.17276794 -0.37528849 4284638563
0.66529447 0.21615598 -0.3819522 4284047713
0.68006349 0.27768174 -0.38421363 4284178786
0.66654682 0.37520725 -0.3705031 4283980118
0.66638005 0.41391155 -0.37825865 4287136633
0.68668735 -0.50630999 -0.32536545 4285558632
0.68797094 -0.47511485 -0.32439837 4285296235
0.69269687 -0.42853379 -0.33436745 4285230956
0.68324506 -0.32831082 -0.32732332 4285494642
0.6852203 -0.27139065 -0.33108151 4285363057
0.68108964 -0.22316344 -0.32567036 4284967529
0.67529488 -0.17476191 -0.32294267 4284375648
0.67704993 -0.12488285 -0.32479873 4283783768
0.67808729 -0.075130284 -0.32470867 4283191631
0.67881227 -0.024760531 -0.32596484 4282928457
0.67698562 0.024971338 -0.32610306 4282994251
0.67405975 0.12483317 -0.32494459 4284638307
0.67196262 0.17083089 -0.32662705 4284244062
0.65300649 0.2412812 -0.33554813 4283850847
0.65493858 0.23099977 -0.33299005 4283719004
0.65196449 0.25863603 -0.33471391 4283981664
0.65371203 0.26853013 -0.33153442 4283718491
0.66664243 0.32566607 -0.32433283 4283717976
0.66293162 0.3750785 -0.3257103 4283914324
0.66148555 0.40690088 -0.3288044 4284832845
0.68857461 -0.50942272 -0.27647299 4285295459
0.68956822 -0.47507319 -0.27565441 4284901991
0.67581832 -0.3755863 -0.27214706 4284836713
0.67337948 -0.32614553 -0.27531391 4284902506
0.67868811 -0.22137581 -0.27583298 4284836455
0.6773293 -0.17566894 -0.27578798 4284441697
0.67326146 -0.12447782 -0.2740733 4283849561
0.67514557 -0.075810328 -0.27501288 4282994251
0.67113787 0.12531431 -0.27553946 4283454285
0.66619891 0.17007264 -0.27534321 4283586388
0.66272324 0.22447416 -0.27336302 4283258196
0.66167057 0.27386439 -0.27610487 4283323218
0.65681452 0.32217377 -0.26825067 4283256396
0.65681452 0.32217377 -0.26825067 4283256911
0.66513568 0.37633181 -0.27520594 4283387980
0.66062713 0.40935102 -0.27031252 4284635721
0.68720138 -0.50853336 -0.22390568 4285163618
0.68982035 -0.47763139 -0.22909407 4284901478
0.68633771 -0.42356935 -0.22507107 4284835943
0.67520273 -0.21940872 -0.22582424 4284310368
0.67291838 -0.17441942 -0.22429164 4284112731
0.67282128 -0.12522352 -0.225003 4283586131
0.66820896 0.074958116 -0.22473839 4283059785
0.6662268 0.12506577 -0.22463925 4283389008
0.66794384 0.16974364 -0.22558205 4283257423
0.65601933 0.23041344 -0.22569543 4282797900
0.65601933 0.23041344 -0.22569543 4282862924
0.65723765 0.27521616 -0.22349456 4282796616
0.65950638 0.32497984 -0.22325833 4283125067
0.64863861 0.39157164 -0.20476957 4283320901
0.65264714 0.38032281 -0.21757257 4283256137
0.64823419 0.39919573 -0.20657177 4283911488
0.65233862 0.40729445 -0.22295369 4284371517
0.67614865 -0.50740367 -0.17583725 4284900702
0.67822123 -0.47546285 -0.17183502 4284638305
0.67972732 -0.42388603 -0.17462574 4284770150
0.68160301 -0.37594241 -0.17228363 4284573028
0.67511445 -0.324296 -0.17376861 4284638821
0.66992438 -0.219754 -0.17596243 4284441954
0.67108989 -0.17543013 -0.17482182 4284112732
0.66265827 0.075017609 -0.17433029 4283322443
0.66261178 0.12496389 -0.1744941 4283585873
0.65287876 0.19234812 -0.16668552 4282992968
0.65457666 0.1861769 -0.16862303 4283126095
0.65232706 0.20963262 -0.16666698 4283059017
0.65370917 0.21516374 -0.16876709 4282994252
0.65933138 0.27569234 -0.17419891 4282796615
0.64826405 0.35414115 -0.14418669 4282071606
0.65758151 0.32383266 -0.1744089 4282401599
0.64830816 0.3920947 -0.19439408 4282860865
0.65044022 0.3803477 -0.18135956 4282335035
0.64719009 0.39906517 -0.19289626 4283450942
0.64920247 0.407058 -0.17668498 4283384624
0.67740685 -0.50919825 -0.12356223 4283979085
0.67706847 -0.47411034 -0.12503539 4283585619
0.67848492 -0.42418489 -0.12403075 4283717204
0.67804873 -0.37560561 -0.12504247 4283717202
0.67164564 -0.32436699 -0.12449847 4283651410
0.66815788 -0.22186233 -0.12546615 4283454288
0.6688571 -0.17525844 -0.12451281 4283322445
0.66081715 0.075061068 -0.12480791 4283058756
0.66005111 0.12324227 -0.12528554 4282861634
0.65783995 0.17483549 -0.12507144 4282467905
0.6510008 0.23477019 -0.112712 4281809206
0.65167993 0.22979167 -0.12004574 4282138683
0.6509043 0.26546389 -0.10640664 4281480242
0.65240216 0.27407452 -0.11833167 4281743413
0.64840871 0.32218757 -0.11607462 4281742641
0.6497345 0.3250314 -0.1256399 4281742899
0.65089864 0.36297211 -0.13675292 4281874227
0.65119112 0.38870496 -0.12564285 4281873970
0.65147525 0.40073067 -0.11469973 4282202672
0.65267009 0.39851204 -0.12222285 4282793260
0.67930359 -0.47530973 -0.076016143 4283388499
0.661008 0.075024366 -0.074815005 4282992964
0.66004252 0.12136729 -0.075357564 4282401084
0.65241218 0.16915837 -0.073583618 4282335551
0.65241218 0.16915837 -0.073583618 4282204479
0.6489374 0.25584066 -0.10228857 4281677364
0.65769219 0.22506608 -0.074951112 4281875001
0.65113115 0.26541311 -0.09189342 4281545521
0.65292144 0.27268988 -0.080824196 4281808436
0.6492188 0.32433656 -0.09649235 4281348912
0.65117967 0.32114112 -0.084680349 4281874228
0.65065485 0.38768578 -0.082727142 4281874226
0.65203691 0.37783533 -0.078025527 4281940020
0.65054584 0.40187952 -0.090184018 4282596395
0.65197837 0.41010302 -0.079590492 4283649082
0.67746705 -0.51971078 -0.022559511 4288585626
0.68181562 -0.47751689 -0.018257406 4282601821
0.68147629 -0.43182996 -0.021642616 4284446087
0.71254319 -0.42272568 -0.0098555218 4279707445
0.68469524 -0.36598116 -0.015663439 4283195502
0.70248002 -0.39425167 -0.0065933364 4279778650
0.67968893 -0.3260766 -0.02120156 4282601045
0.67191505 -0.27405727 -0.020609174 4282337874
0.67225051 -0.22452573 -0.02043787 4282338388
0.67156786 -0.17345762 -0.020564746 4282272338
0.67032713 -0.1249479 -0.020754814 4282469202
0.66896766 -0.074983217 -0.020805271 4282337613
0.66555381 -0.024909737 -0.020830238 4282139977
0.66572994 0.025053017 -0.020832216 4282074441
0.66322237 0.075021252 -0.020971496 4282337357
0.66360009 0.12162413 -0.020467607 4281943114
0.66265076 0.17483836 -0.018089755 4280891712
0.6555208 0.22721955 -0.023731481 4282795586
0.6555208 0.22721955 -0.023731481 4281350459
0.64938772 0.30963463 -0.0052432106 4283254854
0.66125691 0.27558047 -0.020412831 4281349431
0.65192878 0.31355515 -0.0096167475 4282992194
0.65270245 0.31837443 -0.011811263 4281414966
0.65088218 0.38232717 -0.010639977 4281481275
0.65254563 0.37971509 -0.018492915 4281152310
0.64743227 0.43082058 -0.012040325 4290164657
0.64961314 0.42321309 -0.022224236 4285952866
0.64497828 0.44606876 -0.0069811163 4294901754
0.68133235 -0.51247269 0.012704285 4285956482
0.68823266 -0.47443739 0.021551533 4279512385
0.70019221 -0.45167071 0.046714976 4278198079
0.70155716 -0.42728102 0.021019991 4279908175
0.70278555 -0.41586685 0.023026278 4278986559
0.69049716 -0.36788112 0.018175121 4279774784
0.70675504 -0.406124 0.02552624 4278724674
0.68432158 -0.32511395 0.021300102 4279512643
0.67998809 -0.27507547 0.021156214 4279512902
0.67619842 -0.22133474 0.022313414 4279316295
0.67524773 -0.17449169 0.021560822 4279578950
0.67245966 -0.12484059 0.020859923 4279776071
0.67217559 -0.074997596 0.020891465 4279710021
0.67177474 -0.024961637 0.021048173 4279578433
0.6699087 0.025135478 0.021058738 4279578434
0.66839737 0.074899644 0.02079878 4279644228
0.67046553 0.12439848 0.021775469 4279315519
0.66985667 0.17508405 0.022560794 4278920761
0.66796285 0.22063549 0.022124778 4279313971
0.66981041 0.27631092 0.020578491 4279444269
0.65392363 0.31551164 -0.0037459531 4283450945
0.65585291 0.31676817 0.010454801 4279509547
0.65319872 0.38270664 0.0036063076 4283584076
0.65724647 0.38125288 0.013295858 4279049769
0.65059096 0.42210439 0.0034189273 4287991946
0.65325868 0.4194386 0.013605373 4281747012
0.6523934 0.45408276 0.0014601707 4294901754
0.65713978 0.45327455 0.0064488179 4285384700
0.68915761 -0.50787306 0.07766705 4278463566
0.68689883 -0.47290385 0.073452905 4278395451
0.70010465 -0.42921937 0.076541252 4278461759
0.70010465 -0.42921937 0.076541252 4278460215
0.69868767 -0.37430173 0.079727165 4278328112
0.70208532 -0.37725592 0.091648258 4278527297
0.68904555 -0.32438537 0.072368629 4278331207
0.69897699 -0.34189996 0.11074388 4278333268
0.68228519 -0.27517971 0.074908525 4278332236
0.67745358 -0.21953365 0.074861661 4278463048
0.67734516 -0.17490768 0.074388497 4278593860
0.67260176 -0.025098568 0.074605376 4278527294
0.67225975 0.025053855 0.074695975 4278527551
0.67106295 0.075131327 0.074626632 4278527551
0.67020386 0.12463389 0.074224032 4278461242
0.67175853 0.17496926 0.074455313 4278460211
0.67022878 0.21896748 0.075307831 4278459438
0.65222138 0.4058924 0.065456696 4278325270
0.67469615 0.37967804 0.076044008 4278392096
0.65222138 0.4058924 0.065456696 4278456343
0.65222138 0.4058924 0.065456696 4280628003
0.69798315 -0.51024115 0.12293208 4278990680
0.69798315 -0.51024115 0.12293208 4278464598
0.69872439 -0.47812662 0.12962608 4278465110
0.69836998 -0.48362732 0.13823332 4278532191
0.69951403 -0.42594415 0.12139102 4278530388
0.69951403 -0.42594415 0.12139102 4278531674
0.70228404 -0.3557924 0.11172759 4278466910
0.70414925 -0.37422046 0.1092844 4278464593
0.69955343 -0.33623421 0.10690818 4278466654
0.69897699 -0.34189996 0.11074388 4278466397
0.68713498 -0.21854672 0.12250721 4278927715
0.68509161 -0.17879961 0.13849349 4278992735
0.68029904 -0.12394447 0.13868114 4278860634
0.67548311 -0.073898315 0.13792969 4278729306
0.67723423 -0.025863843 0.1213351 4278795871
0.67714304 0.077613793 0.11750792 4278927716
0.70387751 0.077120997 0.15768291 4279722378
0.67587364 0.12326984 0.12030558 4278926171
0.70126241 0.12820828 0.15689097 4279192693
0.67744571 0.17574662 0.12215372 4278792270
0.67600054 0.22017424 0.12347925 4278725703
0.67507178 0.27528152 0.12504318 4278657846
0.67422777 0.32518056 0.12536462 4278591024
0.66995412 0.37260887 0.12100584 4278524715
0.66420513 0.41798776 0.12553607 4280237386
0.70175463 -0.50473994 0.17108129 4279059303
0.7021392 -0.51269704 0.1907379 4278931064
0.69932157 -0.49507967 0.15340482 4278533478
0.72745544 -0.4770771 0.17785853 4279983240
0.71872735 -0.41896787 0.16300339 4280576400
0.68624341 -0.19345218 0.1518153 4279518562
0.68589664 -0.18741174 0.1428017 4279451482
0.71506804 -0.17924219 0.17537479 4282417830
0.68029904 -0.12394447 0.13868114 4279319126
0.67548311 -0.073898315 0.13792969 4278926683
0.69012225 -0.031765137 0.15335204 4278666602
0.71714675 0.03351979 0.17277437 4281431708
0.70387751 0.077120997 0.15768291 4280445331
0.70387751 0.077120997 0.15768291 4281826464
0.70126241 0.12820828 0.15689097 4279787400
0.70126241 0.12820828 0.15689097 4282419122
0.70281029 0.1732823 0.16191803 4279191148
0.70281029 0.1732823 0.16191803 4281364634
0.68407214 0.218457 0.15457341 4278991709
0.68012005 0.2777276 0.15593478 4278922049
0.67509735 0.32676193 0.16611178 4280173144
0.6748578 0.37523249 0.1787554 4279514959
0.69405502 0.40797448 0.16739762 4278525743
0.63996512 0.4395076 0.19013584 4285516796
0.69405502 0.40797448 0.1673976 4279116847
0.69405502 0.40797448 0.16739762 4278525744
0.70885468 -0.51237696 0.2080964 4280902524
0.71353215 -0.50455225 0.22000097 4279458180
0.7208907 -0.49757835 0.2227926 4280110706
0.71403646 0.078291707 0.20517774 4293324250
0.71648556 0.12274764 0.21119998 4293125848
0.68307179 0.38665572 0.21706213 4280899701
0.70036089 0.39204514 0.25206971 4281493382
0.64558595 0.44630182 0.20050676 4285583100
0.67394632 0.41934699 0.22293556 4280832101
0.64978987 0.45021382 0.2078519 4285583101
0.64978987 0.45021382 0.2078519 4285911806
0.71623957 -0.49752888 0.27637959 4280841890
0.71623957 -0.49752888 0.27637959 4278856261
0.70328659 0.39432925 0.26663038 4279715168
0.70339894 0.39681265 0.2747744 4280108638
0.69519138 0.41275546 0.28266174 4280832876
0.69798338 0.40591425 0.2819272 4279914091
0.72275323 -0.49771419 0.31917262 4279655301
0.72275323 -0.49771419 0.31917262 4278856004
0.71160293 0.40214828 0.32824427 4280438891
0.70150763 0.41191742 0.30988565 4279909196
0.70563245 0.40743971 0.32177541 4280175202
0.73739648 -0.49880254 0.37423152 4279256941
0.7420063 -0.4905847 0.37919471 4278988104
0.74503756 -0.48350206 0.39143881 4280501857
0.71431118 0.40225223 0.37160653 4281230210
0.67413986 0.44763455 0.38623291 4285384444
0.71431118 0.40225223 0.37160653 4280372324
0.67413986 0.44763455 0.38623291 4285318653
0.74035025 -0.50001466 0.41357082 4279321707
0.74652767 -0.48915178 0.40931773 4278989136
0.74864757 -0.48647988 0.41609329 4279317841
0.73228997 0.38950017 0.42143035 4281823119
0.69865048 0.45121679 0.44320995 4285449981
0.70937467 0.44239891 0.42534578 4282348173
0.69865048 0.45121679 0.44320998 4285449725
0.70121974 0.44786131 0.43958798 4285384702
0.75186253 -0.51627815 0.47867373 4279978605
0.75993937 -0.50901854 0.48077011 4279454837
0.76576787 -0.50289547 0.48433071 4279384667
0.74418914 0.38872147 0.45518914 4283402151
0.7606672 0.39116094 0.51311934 4283005338
0.7002396 0.45168546 0.44924709 4285318910
0.71962756 0.4272286 0.46964434 4281492608
0.75252503 0.41427875 0.47272152 4281561490
0.7002396 0.45168546 0.44924709 4285187325
0.70484036 0.45178619 0.47238648 4285318141
0.75670713 -0.50844556 0.51507592 4280180618
0.77254558 -0.48776469 0.5322035 4279056218
0.7622571 0.39698613 0.52301288 4281558147
0.73220986 0.43032676 0.52650261 4282482341
0.75728178 0.40582165 0.54054481 4283009197
0.7117486 0.45295557 0.49226311 4285055483
0.76627684 -0.50623578 0.57323164 4279390838
0.77064174 -0.47334221 0.56808257 4278856519
0.78271818 -0.43004635 0.59583348 4278788664
0.79246503 -0.30117217 0.59546685 4278922052
0.79330546 -0.28849047 0.6027174 4278922567
0.79538083 -0.22256291 0.60978287 4278856001
0.78655571 -0.1675759 0.60701382 4278856002
0.77965152 -0.12554373 0.60109508 4278921024
0.78888112 -0.079331957 0.61043328 4278854972
0.77491081 -0.023084633 0.60535014 4278921022
0.77580845 0.021754146 0.60323656 4278988359
0.77933967 0.075235993 0.60448134 4279449940
0.76321465 0.13085163 0.60216945 4279383117
0.75808716 0.16184069 0.60268652 4279447621
0.76157445 0.24495317 0.60126305 4279578699
0.75099176 0.28892767 0.59922016 4279117630
0.75241119 0.27918041 0.59922606 4279183166
0.75825047 0.31539139 0.60038507 4279577409
0.76441288 0.38264486 0.58675814 4279446074
0.75697058 0.41122726 0.55581236 4281163135
0.75774717 0.40231276 0.5698691 4281295231
0.77367586 -0.46201518 0.60530996 4279188057
0.78271818 -0.43004635 0.59583348 4278987588
0.78136474 -0.36710367 0.62571073 4280040014
0.80087227 -0.32479119 0.63241863 4279644740
0.80087227 -0.32479119 0.63241863 4279512897
0.7941348 -0.2819947 0.60555619 4279446849
0.7941348 -0.2819947 0.60555619 4280760390
0.79538083 -0.22256291 0.60978287 4279578176
0.79703104 -0.21409687 0.61138374 4280365889
0.79169768 -0.17461681 0.6100713 4279380797
0.7965796 -0.18945177 0.61530024 4279511097
0.77965152 -0.12554373 0.60109508 4279183934
0.78888112 -0.079331957 0.61043328 4279248953
0.78888112 -0.079331957 0.61043328 4279314227
0.77491081 -0.023084633 0.60535014 4279314746
0.77580845 0.021754146 0.60323656 4279249467
0.77933967 0.075235993 0.60448134 4279315003
0.7578944 0.14847261 0.59820867 4279379512
0.76996863 0.12188403 0.60158575 4279248695
0.75534779 0.15503173 0.60091567 4279576890
0.76650679 0.17239878 0.60112488 4279182900
0.76519406 0.23557264 0.59962344 4279182903
0.75166047 0.283885 0.60028458 4279249473
0.75561583 0.2668058 0.59678781 4279182387
0.75467515 0.30463898 0.60103947 4279449170
0.75825047 0.31539139 0.60038507 4279052863
0.76638067 0.37060878 0.59382206 4279050799
